1777
-14.9066 -12.6533   2.7096
  -22.4348    15.5044 -0.0116117
 -72.937 -44.5203  8.89314
-25.8004  2.43415  2.69141
-23.8951  4.89607  3.37662
-6.96534  4.96257  1.18088
-36.1195  11.0249  5.23193
-23.3985 0.489167  3.23946
-64.6925 -52.0071  8.64186
-20.5089  16.2207 0.900621
-22.1748  5.60083  2.37496
-25.8989 -0.72318  3.58698
-19.6229 -6.58992  2.86563
-19.9689 -6.55184  2.90946
-88.7981 -13.7624  6.22244
-24.2263  4.04689  1.69809
-20.1101  13.6376  2.52542
  -25.4493    3.70608 -0.0130447
 -17.293 -15.8686 0.809086
-10.0367 -4.21927  1.50483
-10.1237 -4.13891  1.51167
-22.7807 0.675033  2.36631
  -17.75 -5.14391   2.5575
-38.4236 -3.36307  5.34317
-14.7293 -13.8925  2.80656
-15.0689 -11.7424  1.98597
-23.1685 -5.93884  3.31155
-50.3426  20.7209  5.66147
-50.8295  34.7585  6.40755
-22.9953  1.52471  2.39285
-50.6659  18.4153  1.85505
-24.8723   -1.302  2.58653
-50.6662  18.6156  1.85745
-16.3722 -8.68349  1.92513
-24.2837  5.86423  3.45858
-37.2155 -22.8802  1.50501
-32.6782 -2.39996  3.40439
-17.3498  -7.8879  2.63861
-16.3675 -7.75196   1.8809
-15.7286  15.6855  3.07831
-22.3416  5.72591  1.59446
-83.6313 -22.4189   12.004
-22.2229 -5.86115  2.38701
-16.2489 -13.5058  3.65574
 -16.445 -3.24643   1.1579
-47.9471  16.6727  5.27821
-17.0913  17.0478  2.51072
-14.1642 -6.67468  2.16691
-12.8438  -2.7652  1.81621
-25.9985 0.905548  3.60151
-25.3043  4.72697   3.5639
-27.0159  2.64362  2.81938
-32.8453  3.56044  4.57566
-28.6137  4.21749   2.0002
-18.995 18.3005 1.82758
-59.1015  38.6288  2.43386
-30.1042  5.19049  2.11288
-23.1059 -6.44055  3.32125
-23.1392 -6.27641  3.31961
 -30.1862 -0.107486   3.13586
-32.8161  13.3702  4.90942
-5.97715  2.97855 0.920223
-50.3044 -6.00251  7.02023
-16.2507 -13.7489  3.68316
-31.5255 -1.26743  4.36951
-31.5512 -1.10316   4.3722
-47.6362  16.3782  6.98119
-16.5557 -16.2892  4.02015
-16.7834 -16.3988  4.06157
-22.447 5.83629 2.40851
-50.1218  20.0193  5.61258
-14.5194 -14.0822  2.80388
-43.9681 -4.46888  6.12328
-24.5511 -1.62854  2.55519
-17.1013 -13.4755  3.01732
-13.1572 -3.61028  1.88653
 -25.969 0.904535  2.69864
-17.3991 -12.1557  2.94071
-20.1081  18.7098 0.946849
-25.0503 -9.20381  1.84636
-48.3941  4.73284  1.67172
-31.0053 -2.82099 -2.18484
-22.2899  6.54799  3.21602
-34.4882  12.1257   5.0648
-22.3166  6.64041  3.22322
-7.19465  4.11887  1.14409
-23.8672  1.83308  3.31348
-23.0691  4.51781  3.25396
-27.5358  10.9943  4.10673
-23.0976   4.6488  3.26139
-51.3096   23.029  1.93615
-16.0352 -14.8134  3.77793
 -15.891 -14.2743  2.22172
-19.2119  17.6258  1.80624
-22.8567  21.7211  3.28052
-15.9345 -15.7325 0.772155
-25.2058  3.84997     3.53
-25.0037  4.67092  2.64171
-34.5075  12.4715  5.08351
-59.5618  38.3395  2.44161
-89.2124 -12.8717  9.37432
-35.8557 -6.96657  1.25548
-51.3058  22.8122  3.88867
-22.8558  4.76623  2.42442
-11.2062 -6.84024  2.26828
-32.9029   32.621  1.59926
-34.2291  15.5024  5.20671
 -16.905 -12.9416  3.68318
-8.45864  4.71022 -1.67982
-18.9203  -14.178  1.63741
-15.2005 -13.1797  3.48092
-17.8552  15.3748  3.26488
-39.0611 -3.28182  5.43031
-19.4063  -6.6682 0.704737
-20.0028 -11.6199  2.40437
-16.3773 -3.35168  1.73472
-21.5872  13.6716  3.53966
 -12.918 -2.85199  1.82885
-6.06081  3.55176 0.968549
-6.00111  3.67256 0.970119
-21.3607  13.8434  2.64565
  -48.9919    8.27089 -0.0241564
-23.208 5.13577 3.29038
-23.1848  5.00358  3.28331
-33.2926 -2.67875  4.62608
 -23.867 -6.29603  4.26743
-37.3126  9.70299  5.34117
-34.3029 -17.9192  1.33233
-20.2309  15.5464   1.7667
-20.3629 -6.36868   1.4752
-10.9413 -3.47559  1.98113
-17.6215 -13.2496  3.81424
 -15.173 -4.16628   1.0869
-16.9315 -14.2766  2.30331
-72.4095 -44.8954  5.90574
-18.5313 -14.1401  1.61437
-34.1122  30.0283 -1.60201
   -25.36 -0.177493   2.63372
-23.394 3.11587 2.45062
-25.3663 -0.53128  3.51248
-26.0926  5.25176  2.76451
-51.2614  22.5786  3.87929
-11.1664  -3.6547  2.02779
-11.4115 -7.15869  2.32764
  -37.3711   -22.7969 -0.0186795
-24.7584  15.7437  2.03134
-36.1346  10.8919  5.22858
 -15.257 -4.59228  2.20424
-47.6742  16.5773  6.99523
-22.7001   4.4867  2.40272
  -34.5094   -18.1813 -0.0173191
-22.4894  13.4331  2.72258
-41.4695 -12.2785  7.48287
-40.4603 -4.89698   7.0499
-47.6325 -4.67429  8.28028
-16.5525  -8.5586  2.58009
-19.7189  17.2241  1.81361
-25.7859  3.98461  2.70989
-33.9247  30.0738 -1.59807
-17.5732 -12.5539  2.24522
-17.2807 -13.1828  3.01194
-51.2687  25.4166  3.96367
-22.2069  7.45956  1.61985
-48.4422  4.22624  1.67173
-16.1771 -7.80004  1.86521
-22.8416  4.18469  2.41128
-17.3364 -7.62778  2.62211
-10.8225 -4.44089  2.01937
-18.6686  16.1901  3.42435
-62.1389 -5.00891  10.7875
-23.8165  6.63786 0.849199
-17.6173   -12.96  3.78357
-17.7497  14.2371  2.36529
-17.2849  16.5336  3.31494
-17.2934  16.6577  3.32776
 -11.329 -7.21718  2.32105
-24.3737  2.51416  2.54449
 -89.267 -12.5618  9.37535
-20.0519  -6.2709  2.90845
-40.4134 -5.24919  7.04946
-23.6372  14.2882  1.91186
-20.2422 -10.9239  3.97803
 -17.964 -5.47873  2.59928
-21.5247  6.24184  2.32722
-22.2719  13.4617  2.70473
-27.6161  1.25071  1.91152
 -25.8417 -0.181009    3.5777
-10.4349 -4.84392  1.98607
-31.0121 -3.31288 -2.18871
-16.8183 -16.2618  4.04928
-10.6685 -4.59606  2.00528
  -33.2442    3.48663 -0.0167157
-25.4808 0.132405  3.52761
-47.8309 -5.03101   8.3207
-16.8554 -16.0154  4.02426
-15.7727 -12.2924  2.77082
-29.9062 -1.35844  4.14569
 -11.107 -4.69434  2.08179
  -31.0842  -0.273488 -0.0156993
 -20.57 14.5873 2.62132
 -6.1028  3.33459 0.719084
-18.5452 -12.2494  3.07933
-34.3177  14.4029  5.15677
-24.1306  1.26216  3.34484
-19.9424 -5.93286  1.43845
-29.7662  13.6051  4.53416
-30.8556 -1.50975  2.13661
-30.4099  14.8074  3.51599
-7.2173 4.04902 1.14201
-28.1527  11.9299   2.1158
 -25.9103 -0.813915   3.58895
 -13.193 -5.09916  1.95645
-28.1589  12.2816   2.1259
-21.4417 -16.6044  2.82075
-55.9168  40.5784 -2.43742
-24.9609  15.3279  2.02782
-32.8824  1.83292  4.56116
-33.5626  12.7286  4.97305
-21.5515  6.41277  2.33493
  -25.5927 -0.0899665    3.54311
-27.7051  3.34606  4.82455
 -30.19  2.6354 3.14817
-41.7404 -11.3361  7.48323
-41.6012 -11.1429  7.45122
-22.4857  4.77082  2.38682
-23.1213  1.33085  2.40469
-23.1832  1.45601   2.4119
-22.9935  4.12977  3.23369
-47.3772  15.0972  6.89105
-23.3848   2.1244  2.43815
-17.2276 -16.4849  4.12712
-20.3901 -5.60504  2.19595
-23.3694  1.87689  3.24512
-23.2181  1.21461  4.01819
-40.4369 -5.10899  7.05043
-35.6988 -2.37252  6.18767
-50.8852  22.8376  5.80076
-50.1869  19.4389  5.59665
-50.1468  19.6248  5.59984
-27.9762  12.7866  3.19688
-19.9081 -10.9232  3.92721
-23.4135  1.71625  4.05741
 -25.0522 -0.437256   3.46866
-24.2927  3.92744  2.55551
-20.5319 -9.12391  3.11151
-44.1556 -3.40124  7.66115
-19.0252  18.2022  1.82434
-47.7315 -4.85228  8.30042
-41.5993 -2.62064  7.21009
-24.9616  4.30375  3.50671
 -25.15 4.42653 3.53538
-11.0993  -7.2899  2.29459
-50.3117  8.31363 -3.57933
-23.2679 -7.01338  4.20157
-16.3435 -7.46341  1.86589
 -67.6292   -49.134 -0.032954
-13.3251 -6.53497   2.5642
-22.5511  2.32645  1.56697
-19.4822  18.2533  1.84969
 -17.786 -12.9891  3.81009
-22.6177   2.5326  1.57311
-19.7448  18.3704  2.80507
  -26.336 -0.827443   4.55494
 -26.3243 -0.735198   4.55244
 -16.445 -3.48508  2.32554
-24.9621 -1.74331  3.46417
-31.8568  6.99172  5.64018
-33.2852 -2.56135  4.62376
 -16.004 -3.27488  2.25967
-17.8968  15.6293  3.29245
-47.3533  14.0946  8.54846
-72.4877 -43.2099  11.7047
-21.0501  13.4341   3.4591
-32.7876  7.79749  5.82848
 -13.252 -7.41226  2.62399
-26.1565  5.31196  4.61415
-71.9889 -45.3322   8.8542
-20.0922 -10.9334  3.95602
-47.3628  14.6386  8.57744
-33.2125 -1.91605  4.60766
-27.9071  12.1135  3.16166
-38.7021  31.2931  6.90223
-47.3598  15.1824  8.60531
-47.3691  15.3676  8.61675
-19.3148   17.535   1.8072
-10.2913 -4.88626  1.96671
-17.3044 -6.24837  3.17944
-25.7452 0.672217  3.56543
-10.8733 -4.37363  2.02308
-19.0485  17.1115  2.66286
-18.8765  17.1361  2.65134
-33.1806  31.9907  1.59068
-11.0621 -7.57313  2.31673
-50.1701  20.6493  9.38886
-23.1803  1.09122  4.01058
-40.3898 -5.38938  7.04862
-47.3589  14.4566  8.56754
-35.5469 -2.48685  6.16278
-33.0823  11.2434  6.04349
-43.6954 -4.28708  6.08308
-49.9354 -6.13517  6.97164
-17.6949 -12.1348  2.23041
-28.3541  12.2488  4.27855
-49.3967  10.6625 -1.78663
-47.0477  12.7621  8.43424
-16.0412  15.6666  3.10726
-16.0955  15.8298  3.12853
-40.2799 -3.80941  5.60521
-16.6419 -14.8452  4.62244
-27.741 11.7552 3.13102
-27.1693  4.58682  4.76357
-23.6297 0.288039  3.27107
-59.3333 -2.28959  10.2743
 -33.9604   30.1048 -0.017065
-31.6849   6.0332   5.5776
-27.9247  4.31483  4.88516
-27.9514  4.41878  4.89253
-30.8403 -1.67063  2.13614
     -24.586 -0.000519991      4.24957
  -24.6321 -0.0863128    4.25762
-18.3422 -14.5075  4.84681
-15.1194 -2.43981  2.64459
-23.0572  4.72445  2.44403
-75.6402 -10.1043  10.5779
-13.6902 -9.91675   2.3413
-16.5692 -13.0088  1.45879
   -34.546   -18.3548 -0.0173293
-20.7006 -8.09683  3.84293
 -13.955 -10.3336  3.00288
-20.7307 -7.94244  3.83808
-26.1849  0.54659  4.52742
-59.8185  -2.9356  8.30002
-11.2357 -2.41696  1.98289
-9.67367  3.70208  1.78615
-11.3184 -2.39367  1.99603
-11.0752 -3.58209  2.00886
-11.9948 -6.95563  2.39572
-16.6534 -15.4944  3.93676
-34.3796  12.9017  5.08756
-27.2099  3.72027  3.80251
-50.7148  20.8747  3.79785
-37.5726 -1.31539  6.50244
-36.9035  2.57304  6.39799
-37.2043  9.53632  6.64333
-22.4247  4.02763  2.36567
-45.5426 -2.39196  6.31878
-21.8794 -6.67701  3.95458
-6.31328  5.57405   1.1633
-7.16999  4.08808   1.4222
-6.23558  5.64189  1.16161
    -23.6804 -0.000205755      3.27786
 -71.905 -8.07696  5.00962
-19.9965  16.8612  1.81167
-20.996 12.9911 3.41993
-31.6382  7.29137  5.61467
-7.01306   4.7079    1.456
-17.7648 -11.4234  2.92588
-25.8809   2.8975  3.60546
-16.7013 -3.05605  2.34878
-63.1062 -5.97443   10.969
-16.4604 -9.17679  1.95787
-12.4092 -4.79487  2.29723
-88.8288 -14.0846  9.35382
-20.8993 -11.8992  3.33178
-8.63591  6.72045 -1.89928
-30.5193  14.5983  3.51671
-23.7025 0.991523  3.28378
-51.4215  24.6046  3.94834
-86.3433 -13.9988  12.1258
-50.3451  20.9269  9.43527
-58.7599 -1.44671  10.1703
-14.8198 -14.2747  2.14036
-13.8396 -5.23944  3.06188
-15.5766 -12.8997  2.80271
-9.63865  4.11806  1.80769
-20.931 16.3184 2.75953
-18.6961 -16.1057  5.11526
-17.1692 -16.7765  4.97674
-41.6603 -2.47873   7.2191
-13.3633 -6.09763  2.53755
 -22.31 4.24828 1.56987
-10.491 -3.7591 1.54018
-22.8285 0.875499  2.37199
-26.5681  1.90036  1.84167
-16.1397 -14.1952  3.71934
-16.7624 -16.6088  4.08458
-24.0055  1.33952  4.15551
-5.93999  3.66335  1.20152
-86.1315 -14.5818  12.1101
  -68.0441   -48.7134 -0.0331779
-13.2949  -7.1647  3.12608
-32.1886 -2.70257   3.3561
-7.13032  4.69772  1.17884
-19.1571  18.5854  3.69981
-5.99957  3.58615  0.96369
-13.9799 -10.0901  2.98132
-19.9469 -11.7274  2.40505
-12.1634 -5.65051  2.77481
-11.4445 -2.62937  2.02623
-5.98828   3.6219 0.964925
-51.4686  24.1872  3.93884
-14.4405 -6.95973  2.77005
-16.1164 -7.52977  1.84737
-22.2628 -13.6737  3.62034
-8.34194 0.877417  1.44464
-23.1553 0.968727  4.00532
-10.9082 -3.50683  2.36866
-10.9493 -3.22783  2.35964
-10.8928 -3.08797  2.34029
-24.3323  2.89615  3.39211
-17.1833 -16.2706  4.90584
-51.1464 -7.00985  7.15393
-33.9032   10.998  3.70436
-20.7513  12.9397  3.38735
-12.9583 -7.57723  2.59416
-18.7837  -6.7472  4.13233
-18.8453 -6.91828  3.46995
-10.6265 -4.66591   2.0035
-10.4467 -8.36511  2.77104
-11.4159 -3.95812  2.49835
-16.3538 -15.1083  4.61512
-23.4614  3.79304  4.10763
-6.07318  3.47471 0.723553
-11.8125  -7.2401  2.86767
 -11.634 -7.04684  2.81513
-12.3611  1.08157 -1.29983
-29.2576   13.496  4.46377
-47.9801  11.7661  3.41954
-15.6901  -12.539  2.78317
-10.9519  9.35592  -2.5016
-12.1659 -4.79799   2.7051
-48.9438  7.03805  8.55473
-14.8652 -4.58695  2.15206
-23.4036  5.47927  3.32743
 -23.202 -5.77529  3.31046
-11.8549 -7.04076  2.85371
-7.54342  4.26706  1.49375
-47.5556  15.9804  6.95282
-47.597 16.1792 6.96708
-6.45172  5.23367  1.43239
-18.2676  14.6528  3.24448
-20.4537  15.2681  3.53642
-26.3916 -1.33599  4.56821
   -18.2846    -15.0432 -0.00965443
-26.3769 -1.19702  4.56451
-6.35342   3.5336  1.25178
-24.7122 0.300831  5.11708
-31.3775 -7.23826  1.10671
  -51.5517    24.6679 -0.0253541
-18.5542 -16.3247  5.12305
-16.8767 -4.63588  3.62215
-16.8278 -4.52795  3.60644
-16.2827 -3.24371   2.2967
-37.0458 -4.28626  5.16606
-14.7331 -14.3404   2.1387
 -16.013 -15.0015  3.79741
-10.2986 -5.00007  2.36755
 -10.389 -4.99951  2.38436
-16.0883 -14.5023  3.74824
-14.5334  -3.4502  3.08998
-14.8238 -13.8359   2.8107
-16.2258 -13.8741  3.69399
-62.278 36.4953  2.4874
-12.2032 -6.90739   2.4228
-22.9257 0.119917  3.96215
-20.5404  16.0715  1.80607
-47.3899 -4.15035  8.23003
-8.92219 0.563447  1.84516
-36.7078 -3.47051  7.63906
-32.9939  11.3419  6.03453
 -16.602 -3.88264   3.5282
 -41.558 -11.6767  7.46857
-11.0879  -2.0639  2.33078
-6.71345  4.43855  1.38691
-47.9559 -5.29806  8.34723
-48.8459  6.15657  8.51747
-11.8652 -7.01897  2.38196
-14.1914 -2.85065  2.99389
-14.1882 -2.74737  2.98905
-18.1666  16.8994  3.43867
-14.1194 -2.37851  2.96127
-16.0577 -14.6791  3.76499
-66.9156 -7.27928  6.99891
-17.4218 -13.4841  3.05302
-33.3101  9.78755  3.60802
 -18.665 -7.03695   3.4479
-16.1747 -13.9283  3.69343
-31.5073  8.13391  6.74078
-9.62698   4.3125  1.81941
-31.4158  8.28587   6.7304
-6.27016  3.15233  1.20798
-5.92316  2.84951  1.13085
-35.5331 -9.11734  7.60114
-8.24279 0.262679  1.42028
-86.5024 -13.4058  12.1347
-27.1895  1.70675 0.935513
-32.8591  12.4613  7.28128
-15.5051 -2.55785   3.2509
-24.0232  1.50856  4.16031
-37.1937  9.94916  7.97737
-22.4873 -12.8578   2.6928
-24.0981    1.893  4.17793
 -32.322 -2.03399  4.48536
-13.9183 -4.72206  2.53844
-14.6068 -3.46793  1.55751
-31.0993  5.52929  6.54277
-15.4199 -12.4995  3.43395
-23.9482  2.13333  4.15554
-50.6675   18.817  1.85995
-7.0767 5.09818 1.20443
-20.6911 -11.0739  4.05879
-18.5171  14.7472  4.09449
-31.2239  7.88708  5.56922
-7.03662  5.12527 0.901835
-14.0155 -8.73145  3.41927
-7.21844  3.96752  1.13663
-31.1759  8.10656  5.57061
-23.3513  5.72521  3.32837
-13.1545 -5.42964  2.94445
-21.6524  5.91245  2.33069
-7.5077  0.7072 1.55499
-7.46821  0.90396  1.55125
-27.9898  11.9759  3.16387
-13.1315 -5.28673  2.92877
-6.95831   4.7593   1.4532
-17.2569 -5.99432  2.52838
-35.9206 -2.01022  6.22218
-35.4173  -2.6019  7.35711
-35.2817 -2.71558  7.33087
-10.8195 -3.43665  1.56887
-21.1464 -11.1292  3.31022
-23.9295 -7.30489 0.859633
-15.3595 -12.6739  3.44508
-25.9065  3.81835  4.52673
-28.1631  12.0505   1.0534
-31.0664  5.35598  6.52981
-40.5417 -8.46697  8.58242
-17.8479  13.7618  2.34257
-47.0122   13.459  10.1347
-15.9906 -15.0856  3.80459
-47.3261   13.907  8.53468
-11.3956 -2.41004  2.40748
-7.53333 0.581664  1.55803
-16.3365 -8.30275  2.53719
-5.57833  3.78319  1.39004
-46.9635  13.0914  10.1042
-5.56741  3.83253  1.39398
-28.0729  12.3605  3.18781
-13.3515 -2.34417  2.34001
-18.4983  17.3293   3.5131
-16.7893 -5.18316  3.03596
-40.1357 -4.07824  8.35898
 -40.197 -3.94283  8.36884
-8.54068  3.54278  1.90916
-15.2898 -3.35056   2.7033
 -21.37 12.4122  4.2735
-74.2924  -42.894  5.94576
-8.69893  3.39775  1.92827
-18.8507  17.6592  5.35313
-48.5754   17.272  5.36064
 -15.703 -15.5572  1.53191
-9.05958  3.30511  1.99146
-32.8151 -2.87065  3.42257
-13.4753 -11.3131  3.64531
-13.3335 -7.36683  2.63247
-13.0891 -11.6667  4.22847
 -10.778 -3.40264  2.33633
-40.0745 -4.21324  8.34926
-10.6543  -3.3024  2.30563
-23.7219  1.11657  3.28723
-13.4728 -11.5127  4.27357
-5.89056  2.70885  1.33613
-13.7964 -11.3796  4.31254
  -32.9641    32.4551 -0.0165918
-11.6856 -4.00662  2.13249
-47.0964  12.9518  8.45107
  -30.587 -0.429021   3.17788
-25.3795  4.10308  3.55926
-11.8199 -7.88386   2.9413
-9.03698   3.4939  2.00086
-12.7707 -2.65647  1.80314
-9.04335  3.62352  2.01199
-6.44362  5.04354  1.68977
-13.9474 -10.4035  3.00906
-37.139    -1.3 7.69905
-47.2277  13.5209  8.49963
-47.4321  15.3884  6.91071
-36.5786  2.42227  7.59459
-22.528 14.1584 3.68609
-9.67964  3.53173  1.77674
-36.8794 -4.00636  7.68572
-58.5593 -1.03286  10.1341
-11.8784 -6.90622  2.84371
-11.903 -6.7093 2.82771
-12.9117 -7.36962  3.07739
-31.4012  7.46751  6.68604
-8.46641  5.06689  1.70177
-33.3812  12.9268  4.95944
-31.2343  6.51329  6.60903
-18.5028  15.3248  4.15586
-25.7338 0.806541  3.56439
-24.9294  17.4237  1.04739
-23.8646  6.56177 0.850087
-6.02537  5.62492  1.42159
-31.3676  7.28656  6.67066
-14.2292 -7.73434  3.90251
-17.8412 -5.30558  2.57599
-10.4264 -3.83851  1.53555
-15.0959 -7.80262  4.09494
-13.1189 -7.24761  3.10237
-80.3474 -10.7342  5.61278
-32.7291  13.4681  4.90343
-51.8704  24.3765   1.9733
-6.02218  5.42857  1.67468
-19.4454 -13.7922  4.12458
-35.2509 -9.17591  7.54753
-47.2924  15.1605   10.293
 -9.17552 0.0523684   1.89411
-11.7015 -9.50926  3.63476
-11.7977 -7.28775  2.87027
 -36.763 -1.03019  7.61934
-26.1987  3.11813  2.74019
-21.182  12.701 4.27099
-34.3558  15.1287  5.20152
-14.2803 -2.20169  2.98833
-11.4241  -2.5619  2.02017
-50.3726  18.3081  5.57322
-31.1211  5.70111  6.55354
 -18.2316 -0.125441  -2.54182
 -14.153 -1.95543  2.95476
-31.1652  5.93403  6.57143
-15.1808 -13.2555  3.48701
-11.0615 -2.13863  1.94362
-13.0399 -5.73111  2.94725
-10.8806 -8.19655   2.8204
-47.1384  14.2994  10.2092
-47.1848  14.5834  10.2357
-5.75405  3.77282  1.41911
-14.3656 -10.2556  3.05229
-7.59392  5.06138  0.94548
-33.6246 -7.14269  1.18147
-64.6463 -51.9713   5.7526
-13.2568 -5.17693  2.94445
-21.6344  11.7718  3.41112
-6.3377 3.15882 1.46022
-31.4713  6.56291  5.55931
-16.5264  16.4821  4.83677
-5.46938  4.28528  1.43362
-20.0588  16.5578  1.80139
-8.67346  5.02853  1.72923
-22.7113  5.15052  2.41826
-5.81503  3.75547  1.42771
-5.6346 3.76459 1.39754
-33.6044  11.1602  6.12457
-6.45354  5.44347  1.16608
-17.4185 -9.47489  2.74598
-24.1155  3.98509  3.38362
-8.26554  1.12446  1.72108
-11.2547 -2.17617  2.75767
-15.4474 -14.7772   2.9635
 -35.307 -3.08933  7.34249
-6.32448  5.78327 0.888246
-6.50366   4.9821  1.69176
-11.1047 -8.12548  2.84881
-11.3154 -3.83503  2.47031
-13.2951 -6.89826  2.58809
-5.83648  5.80069  1.41935
-15.5444 -4.76781  1.68746
-11.2232 -3.76011  2.44721
-11.9553  -7.9143  3.45476
-6.66432   3.7223  1.57496
-12.9561 -5.93821  2.94911
-11.5697 -2.61592  2.45194
-33.5843  5.66949   7.0556
 -11.695 -7.91852   3.4032
-50.5177  19.7703  3.75647
-86.4497 -13.7066  12.1339
-24.8237  15.6036  2.02992
-14.1026 -2.07365  2.94791
  -11.26 -3.00271  2.80398
-57.9391  39.3283  2.41418
-8.44515  3.64155  1.89892
-32.3232 -1.80797  3.36351
-14.2626 -1.71822  2.97096
-48.8041  6.15119   10.194
-7.59475  4.98587 0.941185
-11.5058 -2.47545  2.83163
-7.18341  4.36489  1.73535
-72.2988 -43.4398  11.6987
-43.9267  -7.1146  10.7334
-8.36549  5.08591  1.68852
-11.4143 -5.74258  3.07684
-31.2565  6.63178  6.61861
-6.68186  5.23108  1.17188
-44.4599  -6.2495  10.8293
-31.5444  6.86535  6.68721
-24.1956  2.70898  4.20814
-6.32335   5.3519  1.42846
-24.5817  2.06016  5.10744
-17.2634 -6.13169  3.16592
-20.4258 -15.1426  2.64424
-11.7008  -7.9225  2.92535
-11.5432   -7.963  2.90317
-34.8763  9.85247   6.2684
-36.4126 -2.80285  8.80665
-11.2131 -7.87943  3.30222
-26.3213  4.53809   4.6174
-14.0282 -10.4638  3.62519
 -16.503 -13.0961  3.64491
 -16.564 -12.9108  3.63326
-15.0417 -5.75656  3.33315
-17.7885 -11.3512  2.92323
-19.9151  19.0545  2.86704
-22.2707  14.9359 0.923016
-44.6901  -8.3631  7.86598
-29.9163  7.94592  7.46285
-26.0459  5.85912   4.6153
-11.0981 -3.84732  2.82679
-14.4243 -3.53045  3.57565
-38.715 1.48054 5.36694
-25.8571  6.86792  2.77904
-26.6188  5.45392  6.54956
-49.7374  20.0666  9.28131
-13.0311 -4.72557  3.33768
-17.7716 -6.59319  3.27601
 -8.00616 -0.412603   1.65384
-13.2732 -7.57655  3.68248
-36.2672 -2.91899  7.53797
 -6.8078 -5.63672 -2.13658
-10.5432 -4.96145  2.40979
-11.305 -8.0628 2.87477
-13.2981 -7.34688  3.66043
 -9.20617 -0.572168   2.21659
 -9.16386 -0.409789   2.20425
-47.3667  14.8209  8.58752
-9.15452 -0.37747  2.20165
-12.8485 -7.18539  3.54664
-34.2178  15.2821   5.1927
-84.1624 -21.3071  12.0362
-9.13113 0.226755  1.88542
-17.1766 -16.4933  4.93682
-8.73026  2.91183  2.21163
-8.65259  3.00362  2.20097
-15.8438 -3.93821  3.37809
-30.701 10.3143 6.70939
-11.8032 -9.12272  3.59571
-17.3274  17.1635  2.53662
 -11.041 -4.62112  2.47521
-10.9531 -4.69655  2.46461
-23.8511  4.32659  4.18981
-17.3239  17.1595  3.37963
 -11.851 -3.02906  2.94359
-18.4484  17.4037  3.51516
-22.4965  -13.656  3.64669
-44.5828 -8.18215  7.84194
-7.98687 0.109044  1.91801
-72.9546 -8.71091  5.08697
-35.1109  10.3163  7.58206
-22.1729  1.85879  3.07953
-11.7325 -4.69713  3.04244
-7.10343  4.89566   1.1912
 -14.498 -2.15799  2.53074
-31.0663  8.77548  7.78366
-8.61834  4.91678  2.04989
-13.0426 -4.75552  2.87186
-33.5967  16.2155  5.16937
-24.8196   4.3685  2.61723
-32.8624  11.4891   6.0214
-6.61843  5.03411  1.43356
-6.55351  5.13736   1.4357
-11.0312 -5.45298  2.54543
 -26.2778 -0.321597   4.54292
-26.6101  5.35563  6.54276
-7.60423 0.653552  1.83208
-11.6226 -5.94968   3.1444
-37.8031 -2.51296  7.84949
-8.82654  2.82544  2.22714
-13.5033 -4.73848  3.44601
  -45.53 -5.75377  11.0694
-6.13361  5.52961  1.42417
-7.20435  4.81991 -2.38385
-10.5941  -8.2435  3.23484
-49.4539  10.4944 -1.78736
-5.92163  5.72383  1.42051
-36.3432 -2.92502  8.79225
-11.4067 -8.94276  3.49352
-39.9102 -3.63392  6.93199
-7.02169  3.89084  1.92845
-13.8031 -8.53175  3.91074
-7.07771  5.00591  1.19706
-11.1564 -2.80918  2.76796
-9.91876 -8.56518  2.71375
 -11.135 -2.76254  2.76021
-16.5805 -14.8946  4.61982
-50.1323  19.8211  5.60598
-16.4098 -8.92466  1.94052
-12.4676 -7.88466  3.55451
-8.1734 4.96856 2.29992
-14.4148 -2.24827  2.51888
-37.3668  10.1352  8.02208
-23.1953 -6.64003  4.17118
-16.2751 -8.09379  2.51648
-50.1341  21.2498  13.1377
-47.3674  15.5497  10.3328
  -7.95595 -0.0779302    1.91046
-18.1047 -14.2175  2.39387
-30.1776  7.51066  7.49769
 -10.555 -4.74439  1.99774
-47.3239  15.5352  12.0156
 -8.06368 -0.107075   1.66368
-47.3456  15.7254   12.035
-47.3673  15.9162  12.0546
-22.5246  10.5788  3.44614
  -14.58 -2.66585  3.56848
-46.659 26.0394 12.8933
-31.4768  7.65968  6.71067
-38.0032  -22.461  1.52059
-50.2763   24.704  13.5165
-19.1231  18.1677  3.65613
-6.9648 3.84319 1.91083
-11.2706  -3.8635  2.86741
-6.02806  5.23411  1.91904
-47.3299  15.3547  10.3128
-21.4035  15.9772   6.4412
-17.5038  15.6107  4.85959
-6.02437  3.21411  1.17518
 -10.827 -3.06912  2.70755
-35.7607 -2.25143  7.42321
-24.6905 -7.16257  4.44509
-30.5515  6.87259  7.54993
-35.3339 -1.97716  8.53346
-11.4532 -3.35555    2.872
-30.2571  7.30681  7.50455
-14.3156 -11.5594  5.05641
-30.2304  7.41203  7.50434
-16.163 -7.7239 1.86045
 -9.22041 -0.637473   2.22108
  -9.1303 -0.281199   2.19498
-13.4978 -11.2517  4.23737
-8.38783  3.70362  1.89319
-6.35203  3.23516  1.71114
-39.3437  24.7418 -1.64036
 -9.04626 0.0831755   2.17363
-9.08178   4.9746  1.78614
-14.3503 -10.4724  4.88103
-47.0385  13.6442  10.1506
 -13.812 -4.63215  3.50809
  -41.71 -11.4843  7.48493
-8.34671  5.07429  2.01809
-8.28784  1.29649   1.7308
-12.2875 -9.09384  4.19895
-16.4135 -15.0578  4.61708
-31.1401  8.27138  5.57193
-12.7464 -8.82924  4.25882
-19.0139 -8.52711  2.88548
-10.2961 -8.42231  2.75433
-10.3291 -5.08188  2.77111
-11.1165 -8.34439  3.34972
-21.7904  1.82683  1.51127
-12.7716 -8.26588  4.17796
 -9.27641 -0.852407    2.2388
-11.4652 -3.40251  2.87802
   -35.9 -2.13452  7.45055
-17.5982 -11.7548  2.93192
-12.3482 -7.74852  4.00301
-14.4865 -3.22649  3.57343
-11.3621 -7.77911  3.31785
-12.5151 -7.79299  4.04838
-12.422 -6.6366  3.3925
-24.4257  0.34008  4.22223
-12.8841 -7.59362  4.10653
-35.6998 -4.63543   7.4583
  -26.0698      6.296 -0.0133376
-21.8243  1.52367  3.02776
 -37.343 -1.95949  9.01757
-15.9351  -3.5219  1.69346
-15.0543 -5.28543  2.20752
-11.1266  -7.1974  2.28974
-7.80324  4.23702  1.83342
-47.9111  16.6593  10.5135
-11.5242 -7.66614  3.33491
-10.7164 -4.05191   3.1422
-12.7228 -7.71884  4.08635
-36.7581 -4.12295  7.66341
-11.2252 -6.74491  2.26248
-8.38561  1.13323  1.45744
-14.6427 -1.99763  2.55159
-14.5315 -11.0789  4.40602
-12.7677 -7.22803  3.53474
-25.5179  10.9166  6.69142
-8.90182  4.83548  2.09298
-7.52468  4.46607  2.10308
-47.2769  13.7136  8.51709
-16.1627  15.2966  4.61085
-13.1059 -11.3172  4.17565
-11.3259 -2.27205  2.77905
-14.0556 -1.66834  3.40709
-45.968 42.8036 13.0285
-7.71184  4.65041  2.16477
-7.50265  4.70402  1.82876
-10.9766 -1.86561  2.67811
-10.5937  -3.0224  3.02042
-47.2594  14.9684  10.2744
-11.8013 -8.23306  3.95165
-10.4714 -5.24292  3.21292
-16.2906    15.91  4.71842
-16.3513  16.1937  4.76877
 -36.688 -4.24461  8.90635
-13.2676 -6.97181  3.61076
 -12.077 -4.23585  2.20958
-44.0921 -6.04098  10.7344
-16.6962 -13.4892  2.97468
-12.0232 -4.45329  3.08659
-13.8863 -11.6177  4.97554
-35.8377 0.683127  7.42569
 -11.882 -8.16704  3.95949
-13.1201  -3.8714   3.7532
-7.67929  4.10084 0.901351
-11.1906 -6.93826  2.27493
-16.1794 -3.13492  4.52325
-6.40471  3.16456   1.7148
-17.9512  15.2937  5.68685
-11.0075 -3.64481  2.79026
-34.4959  12.2636  5.07222
-21.8733  1.60369  3.03534
  -36.95 -1.16435  7.65892
-31.9042  6.30558  6.73662
-39.9213 -2.79414  8.29181
-36.711 -4.1175 8.90844
-36.8305 -3.87112  8.93061
-10.8752 -3.53793  2.75186
-23.1662  4.91523  3.27821
-12.1446 -7.73883  3.95429
-10.8956 -3.31523  2.74029
 -11.474 -7.59418  3.77803
-5.8605 3.71325  1.1945
-11.2536 -2.25756  2.37221
-19.2409  15.9931  6.03382
-7.31917  3.85863  1.98784
-7.08276  4.00544  1.95486
-22.4289  2.11653  3.11806
-75.7915  -10.663  13.2463
-19.2318  16.2137  6.06642
-13.9779 -8.91235  3.43279
-19.0157  13.5837  1.61759
-19.3797  13.7424  1.64452
-24.7063  11.3943  6.55934
-24.1864  4.12684  2.54801
-33.2464  13.0749  4.94955
-31.7491  22.3616 -1.37006
-28.2009  3.85583 0.977619
-24.5213  11.4127  6.52074
-12.4464 -9.62169  4.32175
-7.49065  5.24038  2.19809
-11.7328 -7.67867  2.90269
-5.96373  2.78031  1.13202
-8.16297  6.03606  2.44232
-20.9299   17.523  6.58383
-37.9058 -4.51979  10.4916
-6.24264  5.22742   1.6816
-5.19415  4.67825  1.67931
-22.0164  17.5388  3.90101
   -35.65 -0.749906   8.59823
 -10.768 -2.89105  2.68233
-41.6366 -10.8416  7.44374
-7.86269 0.868382  2.16458
-16.4344 -3.18481  2.31576
  -35.7159   -6.81036 -0.0178822
-13.0909 -5.05943  2.90353
-6.64039  4.88876  1.42146
-34.2405  5.16818  5.98864
-8.6067  1.4844   2.098
-8.59887  1.60641  2.10135
-24.1592  11.5529  6.45616
-23.9499  11.5556  6.41092
-43.2003 -6.84219  12.0229
-43.2534 -6.69608   12.031
-47.0899   13.481  11.8156
-11.1863   -3.791  2.84247
-19.9124  19.3185  5.75049
-13.5168 -11.6731  4.90816
-10.7458 -3.43356  2.71435
-30.0203  7.80578  7.47849
-13.3272 -7.06263  3.63377
-11.7359 -3.04295    3.325
-42.2955  9.74739  11.9304
-11.184 -7.6279  3.7171
-37.0706 -3.76569  10.2404
-8.41448  2.82278  2.43026
-37.8805 -2.12032  10.4268
-6.75765  5.15909  1.17404
-22.1263  4.13352  1.55588
-7.63076 0.950508   2.1038
-28.7527  4.44251  7.99285
-48.0816  -5.5666  8.37413
-50.2088  23.8069  13.4075
 -11.883 -4.23706  3.46097
-10.4767 -4.88529   2.7826
-10.8019  2.01787  3.01151
-23.1519 -6.02062  3.31216
-10.5371 -3.73385  3.06568
-9.19576  3.62903  2.70853
 -18.706 -7.69295  3.49636
-13.9567 -1.88677  3.39015
-15.0358 -2.15831  4.16796
-12.7191 -2.36949  3.54856
-30.8348  7.78842  8.73859
-23.5645  6.30256  3.37699
-38.1101 -3.46957   5.3012
-22.3286 -12.4584  3.54257
-10.7213  1.96426  2.98699
-33.5486  11.2716  6.12153
-50.3468  19.0967  12.9911
-9.99134 -4.26164  1.50136
-26.8994   4.0603  7.47291
-36.8502  -3.3543  7.66622
-36.7506 -3.99233  8.91459
-14.5526 -8.51298  4.06326
-46.9898  13.2755  10.1198
-6.34037  5.13547  1.68503
-9.81296  2.18866  2.75438
-37.9461 -4.72605  10.5096
-11.0702 -5.11667  3.34606
-11.4247 -4.64266   3.3832
 -7.6903 0.660878  2.11178
-21.8033   9.9621  6.58472
 -16.907 -13.8561  3.78224
-27.8508  13.0831  3.19809
-11.4643 -8.35919  3.41919
-86.2373 -14.2905  12.1179
-13.9582 -4.89886  3.06062
-27.4713  11.0797  4.10286
-10.6419 -4.49661  3.16895
-31.5618  7.85512  8.93703
-25.1076  2.89955  4.36881
-13.7193 -8.67957  3.91264
-14.2317 -2.42304   2.4925
-27.8928  12.8662  3.19245
-76.1043  -10.978  13.3077
-12.1895 -4.18023  2.66507
-27.0828  9.20307  6.89584
-34.836 -3.5381  8.4434
-32.1948   6.9481  7.94128
-43.2056 -4.23899  4.51227
-47.1575  13.5011  6.79755
-10.4501  -4.9843   2.3944
-24.9341  11.7108   7.5688
-11.6585  -4.4566  3.42411
-7.9596 5.18622 2.60341
-31.5274  7.09229  6.69398
-9.98416  2.26333  2.80484
-7.87569 0.100789  2.15533
-27.331 4.51617 4.78917
-35.1993 -2.09271  8.50267
-34.8824  10.6466  8.79517
-24.8072  5.35389  2.63578
-27.1793  7.37104  6.78865
-10.9352 -7.34656  2.27642
-6.3963 3.21581 1.95857
-6.41151  3.25146  1.96675
-37.7737 -2.64313  10.4066
-22.1928  10.6115  6.75762
-10.5937 -4.78395  2.79794
-13.4015  -3.4276   3.7952
-10.8772 -8.13436  3.72996
-19.4918 -7.70116  3.62304
-11.0746 -7.95594  3.74452
-9.19529  3.85253  2.39691
-8.17574 0.602323  1.69123
-18.3057 -16.6812  5.13423
-11.8033 -5.78542   2.7196
-8.23917 0.968034  1.71153
-41.2528 -6.53321  8.65475
 -8.99443 -0.182952   2.46346
-25.9362  3.63837  2.72009
-24.2852  5.77511  3.45589
 -7.72294 0.0318342   1.85408
-26.6679  4.98158  5.61812
-10.737 -2.7825  2.6683
-11.5677 -2.46767   3.2433
-11.5003  -2.3905  3.22076
-27.8017  11.6667  3.13324
-5.74402  3.78046  1.65083
-11.0292 -2.51311  2.72133
-18.9505 -13.2918  4.00448
-8.1039  1.1956 2.24188
-32.6561   11.609  5.99464
-7.28777  5.68684  2.22318
-21.9906  12.1657  1.73899
-13.2823 -7.03905   2.5975
-16.8731 -5.33834  1.83718
-10.8496 -4.54047  2.83095
-10.3796 -5.26481  3.19311
-12.0445 -7.32488  4.33992
-10.6799 -8.31048  3.71641
-23.7337  4.17725  4.16523
-12.3224 -8.22006  4.56126
-8.93284  3.13601  1.95482
-7.96907 0.704348  2.18929
-50.2497  24.4738  13.4863
-8.49047  2.75008  2.44386
-12.4687  -8.0893   4.5767
-8.15281  3.11863  2.39014
-11.2528 -7.61767  3.73116
 -8.99899 -0.214367   2.46492
-11.1497 -7.95143  3.29986
-8.95387  4.33244  2.05472
-14.8325 -6.89566  5.03603
-12.5959 -7.30515  4.48284
-35.3962 -2.60036  6.13821
-17.1586 -16.8836  4.99079
 -16.779 -4.42082  3.59093
-11.8187 -2.58614  3.31771
-20.7497  20.4152  6.03398
-6.27073   3.8982  2.02081
-8.06842 0.636764  1.94343
-37.2909 -2.21761  10.2664
-5.54387  4.09281   1.4216
-31.8836    6.475  6.73937
-8.00222  0.19951  1.92206
-10.1266  -3.5282    3.297
-4.99289  3.79196   1.7148
-8.91129  4.72088  2.08342
-38.0607 -5.34799  10.5634
-5.79545  2.49604  1.72468
-34.7796 -1.82429  9.57049
-6.47123  3.77811  1.54599
-44.0354  23.7749  12.0745
-16.0889 -3.88066   2.2896
-7.82469  1.02982   2.1595
-33.2703  6.45507  8.17172
-14.9319 -4.04356   3.7254
-6.77685  5.36321 0.895446
-11.3557 -5.76265  3.06643
-23.5264  6.02955  3.36223
-8.0026 4.75061 2.54985
-7.82571  4.83131  2.51981
-22.5253  12.1553  4.42613
-41.2059 -6.08441  12.8376
-8.17372  4.81414  2.59926
-11.8822 -4.44787  3.90305
-13.5591  -3.6702  3.85422
-14.8704 -3.04162  4.16507
-41.1913 -5.93556  12.8265
-13.6607 -2.57065  3.34609
-11.4651 -7.36036  3.74068
-27.8594  11.5768  3.13514
-16.7192  15.9908  4.79391
-11.4827 -3.23432  3.66855
-5.58724  3.93773  1.40991
-14.5267 -1.77593  3.52312
-47.1581   14.036  11.8691
-6.57572  4.07285  1.85798
-50.5211 -7.46336  7.07698
-34.2029  6.51234  8.39543
-4.34665  4.10634  1.63577
-8.23664  3.03649  2.40373
-33.5936  30.8433 -1.60733
-37.7183  10.3719  8.10541
-8.72869  2.66077  2.49898
-5.82954  2.48294  1.73192
-14.0313 -2.31331   3.4233
-12.9658 -7.64191  4.63391
-14.1677 -2.15892  3.44993
-6.7888 3.99607 1.35713
-12.7936 -2.42958  3.57178
-7.05253  3.65504  2.17445
-6.79833  3.90672  1.61807
-34.6367 -2.90883  6.01133
-7.28306  3.93711  2.26691
-31.627 7.40499 5.61724
 -25.6931 -0.314335   3.55729
-8.48756  4.95992  2.03094
-8.45483  5.02014  2.03145
-21.8531   10.077  6.61039
-20.6425  16.4415  7.25292
-13.6427 -3.79501  3.88552
-37.8667 -6.26659  11.8286
-25.7725   1.2576  2.67975
-11.3176  -5.5461  3.45854
-19.6331 -8.15581   2.2084
-6.89612  4.80493  2.30224
-25.0475  4.22872   3.5167
-11.6544 -7.56889  3.34814
-13.0715 -7.46089  4.13266
 -11.033 -7.63819  2.31901
-10.7202 -3.50783  3.09312
-11.8797 -7.86367  4.38654
-39.8621 -3.76946  12.3397
-8.36467  5.51346  2.74607
-36.0404 -2.01683  7.47822
-45.3097 -6.85335  12.5968
-5.70509  3.82623  1.64917
-10.7787 -5.18792    3.282
-7.23905  4.16087  2.00628
-7.33414  4.26688  2.03899
-11.8912 -4.12389  2.17281
-6.05672  3.13755 0.940124
-16.7983 -14.8804  3.88352
-12.0075 -5.88569  4.11534
-32.6211  11.7253  3.60273
-31.3735  7.34534  7.76892
 -11.953 -4.52206  3.07661
-17.7116  15.3041  4.84986
-13.8089 -10.7181  3.62116
-26.8185  5.49472  7.52021
-8.67685  3.42392  1.92601
-11.0212 -3.33264  3.15745
-13.4702 -3.54534  3.82164
-26.7523  5.09357  8.38837
-10.6655 -3.63413  3.08989
-6.44201  3.18294  1.96577
-37.6827 -3.09931  10.3912
-13.1377   -11.71  4.83664
-12.6465 -7.27585  4.49181
-31.1873    6.051  6.58052
-8.68401  2.69663   2.7923
-26.7316   4.9932  8.37633
-8.53818  2.98035  2.77703
-27.9747  17.8583   6.8779
 -12.353 -7.13508   3.9166
 -8.0471 0.508768  1.93617
-48.9277  4.78465   8.5051
-27.6732  6.47869  7.80804
 -12.468 -7.40599   4.4647
-14.6671 -4.80676  3.19361
-7.87069 0.814191  1.89977
-10.5236 -3.54464  3.41439
-30.8461  6.76942  9.72963
-7.55364 0.900983  1.82605
-38.1369 -3.33763  11.7975
-5.31539  3.83794  1.57374
-6.67427  4.71944  1.40894
-33.8959  16.2144   5.2067
-28.792 8.13267 8.22018
-30.5952  7.84136   8.6783
 -22.46 12.2214 4.42165
-42.0569 -6.06095  5.88724
-20.3804   13.924  5.95131
-10.8091 -8.23156    2.813
-10.1654 -5.42568  3.54497
-9.24028   1.9935  2.90307
-38.0596 -3.73247  11.7851
-7.73121 0.894846  2.38787
-16.8805 -2.93703  5.27356
-37.9767 -1.19688  11.7087
-7.40641  4.08768   2.3166
-17.7959 -13.4787  3.86229
-12.1616 -6.88335  4.30175
-38.5825 -6.10937  9.42099
-26.9683  6.26408  8.52836
-6.23616  4.01313  2.27603
-34.3949  13.1818  5.10338
-10.4085 -4.48316  3.48557
-12.0751  -6.3157   4.1942
-8.81361  2.43752  2.80803
-12.1452 -9.45568  4.74109
-36.2136  10.2305  5.21331
-12.5388 -9.86949  4.38387
-6.29521  3.23374  1.45943
-8.67511  4.90913  2.73172
-38.2473  -2.6764  11.8154
-29.2202  9.14086   7.3817
-33.4988  11.1249  7.31318
-5.85341  2.65477  1.54165
-8.61361  3.02365  2.19369
-8.76095  2.53804  2.80088
-23.504 5.93655 3.35601
-31.3633   7.4584  7.77281
-43.4172 -6.56642  13.5343
  -40.22 -3.37923  12.4389
-37.4163  -1.8326  9.03372
-47.9901 -5.04789  6.68641
-6.64927  6.56646   2.5624
-5.12804  3.78349  1.74313
-41.2427  -6.5314  12.8697
-11.6845  -2.8781  3.30014
-10.4577  -3.2407  3.36603
-23.4908  19.1186  8.32584
-13.9668 -9.53415  5.20885
-10.6859 -5.64532  2.50005
-34.3681  12.6928  5.07592
-36.0309  10.7234    7.789
-11.4528 -2.00863  3.18799
-4.73327  3.69847  1.84188
-6.85092  3.92102  2.16096
-24.3036   12.899 0.946415
-31.2847   7.5553  5.56562
-4.60919  3.97714  1.66523
-37.9959 -5.06897  10.5353
 -7.7952 0.560873  2.39789
-21.5959  9.68584  6.50132
-29.0346  7.71153  8.25386
-11.8415 -4.81298  3.07735
-6.54166  5.36395  1.16835
-28.9613   7.9086  8.24854
-11.046 -7.7323 4.59538
-9.2874 1.93622 2.59836
 -37.412 -22.8216  1.50967
 -25.8743 -0.181269    4.4728
-6.33835  3.97081   2.2956
-11.7008 -2.09444  3.25931
-11.9203 -8.62959  3.54665
-59.5487 -2.50592   10.313
-11.1229 -5.66801   3.8413
-10.4241  -5.3791  3.60882
-14.2565 -3.43648  4.51219
 -37.607 -3.42335  10.3782
-6.39451   3.1872  1.71504
-10.9462 -7.95027  4.16563
-11.0705 -7.83628  4.17613
-37.6372 -3.29391  10.3833
-25.1501  12.2433  7.68578
-11.1567 -7.75243  4.18293
-10.6865 -3.35307  3.07117
-32.6535    -1.37  3.39562
-12.3157 -6.91452  3.87753
-12.2932 -6.76152  3.85156
-10.7643  -4.1559  3.54873
-7.77684 0.149076  2.38655
-7.78959 0.221464  2.39097
-7.82907 0.467773  2.40647
-26.2574  10.6957  7.78988
-11.6436 -2.67522  3.67362
-11.6882 -2.51473  3.67625
-26.9358  6.10818  8.50779
-14.4673 -7.47611  5.55052
-20.8301  15.3229  7.96802
-22.0307   7.6576  1.61276
-23.8778  2.25299   4.1453
-6.17791  4.03651  2.26492
 -12.088 -6.40309  4.21031
-7.22205  3.60109  2.47725
-42.1897 -4.43598  11.6603
-7.5105 5.19611 2.19588
-12.4474 -3.69546  4.42137
-10.9606 -1.92184  2.29951
-22.2444  10.7317  6.78476
-21.7537  9.84793  6.55926
-10.5787 -2.97829  3.01312
-13.7137 -4.33483  3.46316
-12.2284 -7.55443   4.8987
-12.3664 -9.35444  4.25944
-9.09621  1.92934  2.85547
-7.16572  5.14311  2.70982
-7.8583 5.04242 2.55848
-5.22313  4.65528  1.68079
-11.2896    -5.63  3.88189
-32.2203  6.83621  7.94163
-31.4568  7.82923  6.71506
-10.9734 -8.23664  3.30641
-9.01955  2.61316  2.25669
-10.7562  2.08682  3.36702
  -67.7943   -48.8934 -0.0330795
-10.6353 -4.04211  3.87323
-37.8042 -2.51289  10.4125
-6.55675  3.14122  2.23044
-6.49724  3.29505  2.23507
-20.0476  12.7446  2.46871
-12.6696 -3.28638  4.45676
-14.5178 -4.42389  3.14003
-38.2159 -2.80815  11.8087
-16.0629 -2.88088   2.2573
-4.52468  3.94958  1.70757
-4.30435  3.91244  1.78388
-38.2788 -2.54458  11.8223
-4.55279  4.01183  1.65988
-11.7756 -4.83395  3.06456
-11.6958 -5.53127  3.98111
-12.2409 -8.99333  4.17216
-5.7147 5.52251 1.91072
-5.82561  5.41827  1.91265
-47.1297   13.138  8.46522
-43.9586 -2.46201   15.021
-9.65881  3.83181  1.79194
-13.0071 -7.91295  4.18087
-37.0103 -3.10892  8.95644
-19.6642  13.1341   7.2849
-7.74604  1.30833  2.66826
-19.0467 -17.8515  5.41226
-9.88139  2.38489  3.45693
-7.6811  1.6988 2.67206
-43.9225 -2.30633  15.0058
-16.8656 -3.08595  5.27718
-10.8048 -3.78715  3.13992
-9.03515  3.45715  1.99776
-20.7965  8.30095  6.14977
-43.2457 -5.92462  11.9982
-12.1502 -8.13548  4.01557
-5.8102  2.4547 1.93312
-26.0633  5.05692   4.5897
  -7.84659 -0.0767502    2.14725
-27.4397  8.89937  8.88685
-14.7026  -6.4036  4.93691
-7.0598 3.67438 2.44301
-6.92895  3.72927  2.41534
 -11.295 -7.50312  4.62128
-105.717  73.9396  39.7989
-18.6298  13.8039  3.21199
-31.5331  6.23244  5.55838
-44.1239 -5.57547   13.708
-46.7828 -5.08519   14.505
-7.66007  4.83975  2.48246
-9.73112  2.13489  2.72919
-37.8346 -6.12584  11.8118
-30.4168  7.00957  7.52562
-18.8769   16.486  5.19335
-8.75767 0.187287  2.68928
-19.3899 -10.9039  3.08145
-28.4358  7.07676  9.02725
 -12.427 -9.53754  4.30333
-28.4964  12.1339  4.29038
-16.9481 -12.7423  2.93815
-13.2337 -7.89428  3.71313
-35.7806 -3.00524  7.43885
-14.2828 -3.28553  3.03155
-12.0019  -6.7924  4.69904
-13.8517 -5.16153  3.05853
-27.4839  7.24802  9.69243
-5.67893  3.82285    1.873
-12.8512 -7.63474  4.10455
-9.88413 -3.23242  3.53872
-40.1891 -7.88204  13.9727
-7.89486  5.14398  2.26575
-25.1895  12.3164  9.56269
 -39.963 -2.37707  12.3376
-7.66358  1.23971  2.38175
-8.59486  4.78493  2.69571
-6.55523  5.56899 0.891347
-24.3994  11.4596   6.4989
-11.7415 -2.33451  3.68097
-7.70086  4.71705  2.47406
-22.4105  15.7772  2.84933
-10.8961 -5.52818  2.52747
-11.9369 -9.46108  5.19342
-13.804 -7.3469  5.3295
-12.5184 -6.74423  4.84527
-11.8137 -7.29732  4.27483
-7.75421 0.321506  2.12351
-16.0538 -8.80297  2.53514
-10.3735 -2.97863  3.31786
-13.6412 -6.71952  5.18193
-47.4077  15.5632  8.63364
-11.4353 -2.88815  4.01469
-22.429 15.4406 6.56655
-26.2149  13.6787  10.0854
-12.1884 -7.23908  4.83099
-39.0918 -6.60987  12.2188
-8.72942  2.54528  3.09088
-7.04763  4.11569  2.77385
-12.8048 -7.66746  4.59532
-7.56605  1.29147  2.09992
-30.6618  10.4203  6.70878
-20.078 12.3255 4.07383
 -19.231 -7.67536  3.57943
-7.1972 2.63818 2.60357
-29.1311  8.00935  10.3033
-29.9645  11.6017  10.9597
-6.74127  3.92049  2.13479
-7.59292  3.33579  2.54592
-38.6635 -3.51982  11.9643
-10.8892 -2.88271  3.46323
-7.19424  3.93761  2.24553
-39.2804 -4.54523  12.1864
-7.84283 0.318298  2.40844
-11.5793 -2.89481  3.67029
-7.07438  5.94792  2.84074
-8.15459 0.470027   1.6851
-31.5042  7.72429  8.91303
-11.1449 -3.84168  4.01328
-11.1736 -3.76482  4.01404
-10.2407 -3.23179   3.6545
-7.72708 0.475143  2.11817
  -9.80425 -0.0297475     3.3338
-6.7014 3.06854 2.26129
-5.70293  3.79601  1.87435
-7.04838  3.69962   2.7049
-7.51892  1.09611  1.82394
-7.48037  1.29023  1.82211
 -44.013 -5.71753  13.6797
 -41.5558 -0.150956   12.8071
-7.96338  2.93546   2.6055
-10.4269 -4.23495  3.83128
-20.8794  18.3681  1.92655
-7.96655  4.37961  3.09122
-7.76574 0.719025  2.64887
-11.5278 -8.13099  5.26708
-69.1923 -4.12303  23.6566
-13.8861 -8.92165   3.9781
-10.1485 -2.89442  3.59098
-28.045 5.33984 7.84296
-27.9495  13.4864  10.5851
-47.3399  14.8129  6.87421
-8.17945  1.29397  2.54155
 -14.838 -3.30513  4.17158
-12.8102 -3.03898  4.04967
 -8.96671 -0.400764   2.45785
-39.3954 -4.41946  12.2172
 -9.03107 -0.317261   2.47464
-14.8883 -2.96434  4.16567
-8.68804  2.63181  3.08577
-11.9978 -4.82794  4.40456
-16.2305  15.6313  4.66909
-8.12804 0.301517  1.67796
-32.1694  7.06005  7.94105
-13.7035 -9.14473  6.15258
-10.5776 -4.10461  3.86257
 -8.78458 -0.254894   2.98694
-8.75216 -0.11702  2.97483
-6.95694  3.69796  2.15668
 -8.70807 0.0651903   2.95951
-13.7915 -11.6202  4.95606
-11.0214 -1.93247  2.69152
-8.40981  4.95374    2.347
-21.5468  9.57377  6.47639
-12.6777 -7.06021  4.94503
-6.86326  5.05954  1.17741
-38.0287 -3.86329  11.7796
-6.89494  3.76244  2.66896
-14.7655 -7.08446  6.11413
-7.5483   4.235 2.37048
-7.58456  1.19997  2.10081
-29.7954  7.08519  9.43539
 -12.808 -7.01673  4.49588
-21.738 8.24077 7.92534
-6.8386 3.77315 2.39737
-11.9255 -6.26342  4.58925
 -11.913 -6.15119  4.56765
-7.78194  5.46501  2.60617
-11.3578 -2.67157  4.35022
-12.0645 -9.70076  4.76874
-12.5759 -5.89582  5.18332
-47.3248  14.6272  6.86451
-12.3291 -7.46955  3.47311
-16.7635 -3.61368  5.27828
-10.5445 -4.34732  3.50784
-12.2199 -7.60827  4.43199
-5.84462  3.80361  1.20068
-11.4993 -3.17427  3.66846
-8.2837 4.95721 2.32128
 -12.087 -8.06179   5.4246
 -12.273 -3.29717  4.73968
-12.3123  -2.0724    3.424
-4.63418  3.54325  1.97962
-7.6116 1.06914 2.10286
  -62.702 -0.231685   23.4395
-4.31537  3.70852   1.9311
 -29.44 9.09711 7.42921
-51.9172 -6.56294  7.25176
-40.2668  -6.8812  13.9369
-22.5768  4.29907  2.38639
-40.2948 -6.66926  13.9342
-11.3627 -4.70981  3.37449
-5.83613  2.56179  1.52867
-6.90964  5.14284  2.92913
 -7.7739 0.695187  2.90392
 -8.01687 -0.343355   1.65537
-14.5059 -3.01938  3.56741
-37.5768 -3.55273  10.3732
-39.1483 -3.56397  13.4103
-48.3258 -2.20069  16.5059
-37.9481 -1.32845  11.7013
-7.34919  5.55182  2.21494
-11.9117  -5.4571  4.46295
-12.2672 -9.11183  4.70651
-37.5091 -3.67835   10.358
-7.41408   2.3016  2.63676
-10.1936 -4.01627  3.00455
-10.1042 -4.07589  2.98789
 -34.379 -3.97662  9.51047
-13.9623 -11.5988  4.98824
-12.0848 -9.04116  5.14549
-26.2466  4.90295  4.61587
-11.8915 -9.02589  5.57522
-13.0158 -7.61042  4.64228
 -7.6848 0.258641  1.84587
-15.2219 -3.30759  5.30623
-12.4442 -5.16012  5.02652
-11.1428 -2.27548  1.96209
-7.59072 0.718809  1.83024
-13.7499  -3.4152  5.28545
-22.9372 -6.91337  4.96124
  -9.43323 -0.0939049    3.51332
-10.3314 -4.32214  3.81262
-26.074 13.8373 10.0681
-12.7876 -8.59622  4.74516
-14.3702 -7.64923  6.07807
-41.2351 -6.38289  12.8603
-15.9493 -2.80281  5.51651
-23.821 3.76605 3.33844
-8.01764 0.367175  2.98661
-26.6931  6.15088  10.2313
-8.9226 2.71954 2.24173
-11.5563  -2.4721  4.02242
-13.9804 -9.61519   5.2265
 -11.598 -2.32675  4.02615
-20.7581   16.357  7.26336
-39.1701 -3.01584   12.107
-27.2345  3.82036  3.80779
-5.64389  3.87075  2.09968
-19.8958  13.1889  7.35374
-11.4641 -5.91851  3.54083
-28.3926  3.07824  1.97492
-8.16252  5.23851  2.00384
  -8.08313 0.00490332     1.6675
-12.8863 -4.77426  5.12735
-11.7342 -9.33385  3.61425
-10.3695  2.01174  3.93549
 -24.8421 -0.520032   4.29491
-7.78104  4.61856  2.77959
-10.3925 -3.06257  3.33075
-7.61422 0.375476    2.836
-15.3974 -8.65143  6.59551
-15.3696 -8.56542  6.57065
-10.2267 -3.18825  3.64544
-12.0647 -3.99651   4.7406
-12.4962 -7.93275  5.04503
-4.08065  4.01771  1.75631
-12.1351 -6.72924  4.27128
-12.1759 -4.89989   4.8967
-23.546 10.7588  8.8275
-10.4263 -3.81766  3.04483
-11.3584  -3.1564  4.01291
-12.5831 -10.0115  4.41773
-14.9792 -6.77434  6.13731
-10.3091 -3.91723  3.02437
-7.69913  1.05415  2.38418
-15.3103 -4.95908  6.00647
-43.9557 -3.53984  13.5915
-6.8285 3.81399 2.91119
-12.3009 -3.19024  4.73946
-6.71992  3.83993  2.62985
-10.2683  1.73403  3.19946
-10.1956   1.6853  3.17484
 -22.81 15.2377 9.35658
-10.9181 -4.88541  2.47377
-8.12122  3.73818  3.32929
-6.65083  4.10333  2.65563
-4.14422  3.79251  1.90661
-8.31197 0.699459  1.43657
 -7.9046 0.279621  2.16437
-49.0599  18.8071 -1.85651
-7.86139 0.513693  2.67595
-7.86576 0.662033  2.68121
-11.9713 -6.55627  4.65053
-11.2928 -2.88536  4.34579
-67.8517 -3.09337  25.3923
-26.9994  5.72797  10.3089
-8.69714  4.33886  3.62096
-23.0461  11.6681  9.64898
-5.7704 2.41426 1.91695
-7.37403  2.35952  2.62969
-7.27365   2.4954  2.61191
-10.4085 -3.89338  3.78279
-11.5385 -3.55588  3.31156
-22.4214  9.04095  6.64061
-13.1499 -7.14525  4.60745
-12.2307 -4.57876  4.87201
-15.0236 -2.20997  4.16671
  -8.8055 -0.347406   2.99517
-14.9584  -10.601  5.03739
-14.9509 -10.5175   5.0224
-40.1467 -8.23776  13.9825
-12.1817  -3.6161  4.73945
-7.73814   1.1097  2.90854
-6.50505  3.95063  2.83264
-6.92694  3.77487  2.93632
-4.18898  3.58661  2.04967
-20.7606  14.0774  8.55464
-13.0727 -8.10963  5.74397
 -13.071 -7.82723  5.68822
-4.09046  3.63522  2.03404
-41.8579 -10.7433   7.4766
-13.0798  -7.7398  5.67423
-23.0217  4.30074  3.24185
-12.8665 -8.39135  4.21871
 -7.57023 0.0971106   2.81646
-4.0167 3.47447 1.97348
-13.9593 -8.52744  6.10831
 -12.381 -8.01182  5.02654
 -12.944 -2.97586  4.08537
-20.735 14.1655 9.38126
-12.8526 -7.39457  5.53554
-4.50897  3.68629  1.90368
-7.76401 0.504508  2.89473
-21.4613  8.91508  7.92271
-4.7937 3.63959  2.2378
-39.2625  -3.4365  13.4452
-20.8795  9.01645   7.7534
-11.7587 -5.36211  3.54637
-7.4774 5.28943 2.20231
 -13.349 -6.89592  6.09027
-10.3725  -4.9915  2.77091
-8.57912  4.56308   3.6203
-21.9343  17.5973  7.72935
-15.0698 -5.46787  5.98351
-8.86971  2.32076   2.8154
-33.3033  8.41233  7.11602
-26.815 6.08067 10.2698
-11.0867 -4.70819  3.70521
-5.76769  5.28952   2.1439
-13.2892  -3.8462  3.79587
-8.1558 5.74962 3.06721
-8.86688  2.22149  3.40366
-17.7578  14.4998  2.38324
-7.07186   5.4188  3.31937
-16.8251 -5.25852  3.04577
-11.9457 -5.19818  4.43728
-13.2958 -5.08535  5.31182
-8.23885  5.12666  3.61577
-11.9014 -9.56882    5.207
-6.66183   5.5012  2.93852
 -8.87066 -0.149517   2.72402
-11.7245 -9.49355  5.63458
-6.85946  3.87877  1.62618
-6.56821  3.38863  2.74987
-8.46899  3.28519  2.18293
-15.4604 -12.3987  3.42838
-11.2882 -5.95244  3.50229
-8.30333  3.35959  3.33541
-8.25332  3.45673  3.33204
-20.4891 -8.84943  3.09073
-26.8263  5.49627  8.43487
-64.4294 -1.13726  24.0893
-4.07865  3.85116  1.90403
-12.8156 -6.00875  4.82237
-13.7131 -3.35525  5.71896
-13.0745 -8.39765  5.80226
-6.41085  5.42566  3.12878
  -12.86 -7.39906  5.05641
-31.2602  7.72261   5.5684
-25.3547  7.16109   8.9832
-8.83323  1.35003  3.61256
-7.44123  5.48021   2.8399
-12.2425 -7.80115  4.94776
-4.29658  3.49848  2.05932
-19.5656  12.8714   7.9862
-13.7635 -3.41852  5.74503
-27.0881  7.54878  11.4056
-39.1596  6.04981  12.2111
-8.14079  2.73065  2.63607
-28.5298  6.99472  9.04933
-4.4725 3.83118 1.80589
-27.1506  12.7523  10.2309
-7.87029  1.09142  2.95642
-10.4805  1.88262  3.27183
-49.9962  20.3741  9.34287
-20.4357  16.2762  8.05077
 -11.065 -6.00792  3.45546
-7.9013 4.89762 2.23504
-7.30576  5.63946  2.83626
-6.01381  2.93197 0.921903
-5.54089  3.95754  2.53325
-5.57982  3.91276  2.31455
-20.4889  16.5539  7.23941
-10.2899  2.48358   3.2525
-22.9238  10.6683  6.94614
-8.60779  1.85692  3.27824
-11.7804 -9.33635  5.61391
-34.4457  10.3821  8.67573
 -65.629 -1.84574   24.544
-6.43632  5.38985  3.12739
-43.6872  -6.1404  13.5977
-30.3592  7.89382  8.61907
-14.2846 -7.82913  3.92525
-12.9738  -3.4623  5.00883
-11.2667 -3.45007  4.01117
-11.3178 -3.27271  4.01046
-7.77118 0.694926  2.39388
-11.2474 -3.04117  4.34427
-8.31912  3.28209  3.61614
-47.7602  6.35857  6.67609
-12.1894 -3.54922  4.73512
-23.025  7.4664 9.81553
-6.58224   3.4249  2.76079
-12.5533 -6.81964  4.86804
-4.8363 3.90292 1.90615
