1879
 37.5152 -4.00489  2.31712
  25.5324  -18.3352 -0.418426
 37.5941 -4.54603  2.32407
26.0499 8.03987 1.64637
 38.0219 -8.85198  2.37634
 27.5305  26.3536 0.732122
 27.3616 -17.7086 0.727632
 19.3952 -1.24617 -1.51362
 15.8699 -3.91712 -1.28516
 18.0985 -11.3303  1.22822
 11.6302 -2.52737 -1.34492
39.8065 26.7896 1.05847
  36.9274   37.0639 -0.844271
27.4985 -9.3175 1.74679
 27.4676 -9.41416  1.74605
 48.6132 -25.7406   1.2926
36.1133 4.00574 2.23113
36.1315 3.87994 2.23178
 27.4739 -10.3385  1.75732
 43.2593 -7.23834  2.68417
 36.148 3.24344  2.2306
36.2051 3.37626 2.23453
36.3734  3.0713 2.24392
 37.9257 -3.91104  1.00847
 27.7467 -11.3934  1.78692
 48.9857 -27.4914   1.3025
36.4567 2.50118 2.24752
22.6058 10.1333  0.6012
  26.7717 -0.785604  -1.15562
 25.7064  8.62007 0.683627
  41.3309  -7.49733 -0.367366
22.2939 9.13602 2.27887
 48.3729 -22.8657  1.28621
 16.9665 -5.42229  1.07456
 28.4242 -17.2887  0.75588
25.6708 8.21885 1.62552
 38.0481 -8.50816  2.37525
26.5257 18.9757 1.84574
 22.2072  5.49968 -1.00489
 22.945 13.7195 1.54514
 16.9654 -5.12907  1.07146
 17.0225 -5.04898   1.0741
 33.1512  6.76196 0.881547
25.3525 19.3933  2.9065
25.5336 19.3203  2.9183
   8.0875  0.413065 -0.350419
41.3463 48.2081 3.31881
  44.6508 -0.298551   2.74886
25.4421  8.2439  1.6121
22.6727 8.42216 2.29552
49.0079 44.4541 5.92851
49.1941 44.3105  5.9364
 36.341 1.91931 2.23919
 46.671 45.6079 1.24097
 38.774 31.1846 4.51007
 28.0412 -16.9403  1.89128
 36.8004   3.0396 0.978558
22.2885 11.5021  2.3476
 18.2131 -11.2695  1.23355
22.7633 12.1405 1.50766
 5.29156  5.81889 0.691443
 26.9405 -17.9072 0.716437
30.4783 7.23591 3.00247
22.3142 11.7138 2.35669
30.7338 7.12624 3.02491
30.9929 7.01502 3.04774
22.7694 12.2975 1.51059
 6.51183  7.70983 -1.57696
  37.3279  0.728353 -0.310825
  47.8102  -25.5028 -0.620097
38.8427 29.8849 2.74603
38.8848 29.7015 2.74444
12.3941 16.2445 1.75817
 5.25168   5.4606 0.670253
33.3075 5.90052 3.25264
  38.0128  -4.31898 -0.324802
  38.0428  -4.52434 -0.325856
 48.526 -25.047 1.29028
43.6796 7.49318 2.71131
 27.091 22.1073 3.16554
27.2562   -9.77 1.73755
 49.7752 -26.1608  3.28944
 42.7565 -7.30793  2.65387
22.0699  9.6823 2.27336
43.9559 6.51594 2.72281
23.5491 8.46709 2.37747
22.3131 9.28095 2.28447
23.6629 8.41451 2.38676
22.2713 8.90005 2.27063
 37.3985 -3.20045  2.30727
  27.0187  -17.8713 -0.412428
25.2581 19.4615 2.90162
26.5734 8.00594 2.64875
26.5728 7.85378 2.64568
43.4424 47.2099 3.39721
22.4741 13.1344 2.41875
26.5554 7.69728 2.64097
  25.6701  -18.2985 -0.417921
  44.6533 -0.532843   2.74908
 27.6818 -3.10247  1.71057
 27.6811 -3.24957  1.71111
 2.61471  3.44653 -1.81952
 19.8773   6.6476 -1.65989
 16.7962 -5.36268 0.446753
   37.271   1.11758 -0.310677
40.6851 48.5257 5.50753
 23.8672  20.5164 -1.55992
 12.1624  14.6251 -1.66349
29.7385 21.9323 3.37491
46.8509 45.5237 3.52879
13.9917 15.5657 1.83567
 27.4945 -9.41416 0.731166
 12.057 15.9762 1.72002
 27.2832    -9.77 0.725546
23.0216 14.4852 1.56342
25.6777 19.2182 2.92591
 26.4292 -6.52669 -1.19541
 27.3537 -15.3234 -1.45875
43.0712 47.4024 1.14527
22.7753 14.7386 2.50335
41.2874 48.2081  5.5339
 30.7866  9.66828 0.818683
   44.0206 -0.0633235    1.17051
30.9296  7.2218 1.93342
36.2027 3.12368 3.50533
 44.9528 -1.32401  4.34185
  16.493 -11.1053  1.13416
  44.0125 -0.294002   1.17029
 26.8784 -18.0696 0.714785
 13.2843 -1.72554 0.822369
 17.7631 -11.5135  1.21284
 49.7655 -26.6012  3.29604
22.2113 10.8781 2.32119
26.0059  8.0341 2.59626
 49.7529 -26.8185  3.29893
24.8422 20.4918  2.9126
32.9957 6.13768 2.05129
38.6991 30.4255 2.74982
39.4155 49.0659 5.44646
38.7867 30.0581 2.74667
22.7547 14.5005 2.49261
22.7265 14.3153 2.48328
 48.5543 -25.2768  1.29103
 38.2932 -9.33965  2.39672
 38.3147 -9.48695  2.39925
22.3399 11.9275 2.36594
32.0957 6.67632 3.14742
31.8785 6.74761 3.12782
 49.1905 -23.0658  3.20749
36.6331   1.293 2.25618
 33.093 6.16159 3.23544
  37.3469  0.598334 -0.310884
  37.1643  0.465512 -0.309303
 37.7082 -6.17442  2.33908
 48.4689 -20.8726  1.28876
23.1171 15.2891 1.58397
28.1524 25.9057  3.4235
 27.5011 -10.3385 0.731341
 22.7713   11.526 0.605601
   44.7686 -0.0645313    4.32273
44.3036 5.69917 2.74016
 13.4735 -2.33134  1.31607
  27.18 -9.8501 1.73396
50.4289 43.7964 3.67532
33.3098  5.6605 3.25002
38.7252 31.0714 1.02973
11.9332 16.0443 1.71532
38.7382   30.86 1.03008
  37.256  49.6962 0.990671
 30.3876  8.67519 0.808076
38.8865 30.3178 1.03402
 30.3169  8.48349 0.806196
 13.2185 -2.11674 0.351642
13.5983  14.404 1.74697
 37.5372 -5.27836   3.6505
39.7149 49.0139 3.26048
36.2765 2.61872 3.50965
38.9756 29.3419 2.74181
41.6954 48.0011  5.5525
37.9528  49.536 1.00919
 48.5425 -20.5036  1.29072
29.6807 7.32177 2.92846
 39.191  28.445 2.73498
12.9938 15.4051 1.75477
22.5809 10.6587 1.47391
  5.1561  5.46058 0.137305
51.0905 43.4397 3.70238
52.4523 42.7359 3.75949
 32.703 6.90888 0.86963
22.0312 9.29984  2.2593
 38.1529 -8.04249  2.37817
25.6556 8.06592   1.623
22.4099 12.6278 2.39557
44.1794 5.99749 2.73394
 24.7633  8.69088 0.658556
  38.6899   29.4839 -0.669139
 43.7351 -7.31103  1.16292
 22.348 8.56127 1.43149
 27.9885 -16.5104  1.88059
 49.3205 -23.5488  3.22227
22.5915 13.9014 2.45642
 38.5543 -11.1358  2.42861
38.9418 30.1429 1.03549
 16.5921 -11.4266  1.14597
 49.3561 -20.4627  3.18052
40.0325  7.0776 1.06448
46.2002 45.8427 3.50305
14.0247 10.2007 1.58644
30.3319 8.50406 3.01081
 28.2605  -17.666 0.751527
 27.3244  26.5245 0.726643
  36.9956   1.88556 -0.309481
 39.0665 -11.7177   1.0388
 39.0891 -11.8734   1.0394
  12.2451 -0.489549   1.18423
  12.2375 -0.747184   1.18441
41.4908 48.1041 5.54307
36.4428 1.47917 3.52122
 5.17547 -1.39313    0.514
 5.06505 -1.41123 0.503947
 4.91942 -1.43609 0.490755
 48.4189 -21.0522  1.28743
47.8806 44.9823 5.86553
30.0269 7.91073 2.97129
27.1532 -9.8501  2.7432
44.4547 5.40268 2.74817
  49.138 -22.8321    3.201
 28.3108 -16.1056  1.89183
 39.9622 -19.6195  4.17655
 16.8644 -5.32999  1.68671
 39.0306 -17.3321  4.02516
 22.8572  12.2804 0.607883
22.0956 9.87856 2.28123
43.9712 6.91797 4.28348
28.3816 27.6213 3.52352
32.4337 6.62198 2.02029
 17.1285 -12.3643 0.455587
  41.747 -7.57992  1.11006
38.0121 4.48974 3.68899
 27.5229 -11.1893  1.77103
  36.9336   2.07611 -0.309331
 5.31069 -1.44809 0.334515
43.9613 7.23234   4.286
 5.32991  5.35116 0.670725
29.9637 -3.6271 2.90902
  24.7731   8.68577 -0.257833
 17.9111 -11.4323  1.21959
39.4204 6.34396 3.84187
 27.4406 -9.41416  2.75967
 12.2707 -1.31234   1.1909
 42.3846 -13.7138  4.24349
 43.502 47.2099 1.15672
40.4355 48.5719 5.49217
11.0435  22.927 9.87575
36.4985 1.09749 3.52565
 37.1955 -2.65947  2.29332
25.1877 8.07215 2.52073
27.2294   -9.77 2.74834
 28.2003 -17.8738  3.08522
 13.0719 -1.67646  1.27082
 5.31568 -1.37071  0.52682
 45.886 -7.6849 4.47517
 28.3983   -5.867 -1.26672
 36.5822 0.523606  3.53283
22.5636 13.7216 2.44749
24.3495 20.5913 2.87748
22.5265 13.4841 2.43571
  30.1332   7.91589 -0.286443
 27.2337 -9.50335  2.74253
27.5082 31.7211   5.132
44.0676 6.30234 4.28632
 27.1185 -9.61373  1.72753
22.1471 10.2759 2.29735
26.3455 19.5743 2.99597
 26.2961 -18.1963 -0.41711
 37.3791 -3.06724  2.30567
  26.5021  -18.1343 -0.416334
37.9224 -19.617 3.99477
 5.49192  5.96242 0.997014
39.1057 31.6392 2.79816
11.5976 11.3135 2.00788
   22.5 13.3083 2.42714
26.2689 8.01461 2.62046
36.2212 2.99737 3.50637
 12.329 15.6105 2.41317
44.9621 -1.4818 4.34309
 24.7861  8.68182 -1.17217
 39.8679 -19.4006  4.16141
12.4402 15.4712 2.41203
26.3827 -2.2602 2.55486
 37.1762 -2.52753   2.2918
25.0125 29.2563 4.69923
  44.0167 -0.524754    1.1704
 24.519 19.8676 2.85895
 22.7823  12.8876 -1.21937
16.4661 -3.4463 1.61583
 29.554 7.12595 2.91324
 48.5661 -20.3139  1.29135
 32.514 6.40776 3.18349
 49.1365 -21.6119  5.06112
 38.1262 -5.28312   1.0138
 29.8326 -3.39944  2.89457
 16.3808 -3.51847  1.60876
35.7898 2.83573 3.46391
 11.9458 -2.03431  -1.3665
 12.957  10.595 2.10059
39.0325 -11.485  1.0379
41.1442 48.3131 3.31159
36.1995 2.48586 3.50157
27.3596  18.619  4.1986
 27.5324  -3.6199 0.732172
 17.0087 -12.4139 0.452402
 22.6257  10.2849 0.601728
36.3619 2.36925 3.51667
 5.34002 -1.38575 0.335729
  5.3101  5.73783 0.688661
11.8923 15.7252 2.38295
  34.4936   35.3547 -0.806861
 39.0849 -19.3591  4.09012
36.5773 1.67534 2.25329
15.5891  10.456 2.38422
 5.22323  5.46212 0.403634
 5.27237  5.39865 0.404544
32.9495 6.30817 2.04958
17.1382 16.8042 2.13425
 20.7399 -3.25144  2.02113
 38.8014 -20.7647  4.10983
43.2264 47.3057 3.38878
 22.3874  9.32035 -1.09571
13.7421 9.75156 2.13367
38.7671  31.142 2.76905
 24.8993  -18.413 -0.41899
 16.8512 -5.28309 0.448215
  45.838 -7.34745  4.46677
13.3931 15.7882 2.52673
32.9689 6.25791 3.22485
 5.49834 -1.34591 0.543644
 5.29892  5.43979 0.938327
  37.2621 0.0765224 -0.310027
 27.0918 -9.61373  2.73195
 12.1094  4.47545 -1.47216
13.0781 15.3954 1.76031
 49.229 -22.065 5.08231
 17.3361 -12.2991  1.20451
43.6462  7.6447 2.71016
48.6279  44.677 3.60096
51.5651 43.2262 3.72284
 22.6919  10.8945 0.603489
 25.5137 -18.3169  2.87519
 42.2658 -7.37647  2.62433
23.9342 14.3984 3.56671
39.3509 27.9361  2.7334
 43.3049 -1.27311  1.15148
 13.1241  -2.0311 0.349131
 27.2939 -10.4997  2.77201
36.1751 3.31274 3.50383
 41.177 5.88365 2.54962
16.9261  12.596 2.66351
 5.97954 -4.12054 -1.59348
17.1256 12.2844 2.66653
  8.49755  0.582867 -0.368743
24.7005   19.73 2.86764
 50.0006 -28.1205  5.34133
 48.4087 -23.7153  1.28716
 17.7293 -11.3288  1.94363
23.7815 13.4142 3.49703
23.7729 13.2999 3.49015
 5.34516 -1.38575 0.142331
  5.1832  5.50959 0.402801
32.7783  6.4537 2.04012
 17.1622 -11.4684  1.17844
 28.3933 -17.2887  1.91746
 12.8628  10.6679 -1.40344
  13.145 0.257829  1.27058
   12.929 0.0724724   1.24958
  20.3583   5.42084 -0.927887
11.9418  6.3678 -1.5633
 27.9584 -16.5104  3.01471
 28.0591 -16.4378  3.02089
 39.1127 -12.0301  1.04003
27.9852 -16.725 3.02469
 39.0968 -7.94875  1.03961
13.8373 9.88077 1.55779
14.0671 9.64147 1.56751
14.0694 9.49903 1.56213
43.7206 7.34286 2.71293
 17.2249 -5.84452  1.73143
 17.4663 -12.2403 0.464567
  30.6536   7.65331 -0.287931
37.5603 4.90362  3.6492
43.8543 6.73625 2.71775
 27.2892 -10.7072  1.75099
  38.4825   30.2928 -0.686202
 24.9422 -18.3737  2.82996
 24.8131 -18.4129   2.8209
 49.9228 -27.6188  5.31749
36.1476 3.50152  3.5024
24.0461 20.4795 2.84818
29.8931 7.70793 2.95509
17.8188 11.2392 2.68436
24.8519 8.16492 3.40634
24.1014 8.38076 2.42658
 13.1458  14.8963 0.349709
  22.856  12.8904 -0.30836
23.6195 12.3061 3.42258
36.4121 2.24445 3.52096
27.5707 26.6113 2.07258
38.9537 -10.946  1.0358
44.0986 6.14954 4.28782
  38.3204  -5.30505 -0.331562
  26.355 -18.1627  2.93951
44.3298 5.55013  4.3045
  27.435 -15.8756 -1.48057
22.1213 10.0764 2.28922
12.2845 10.7715 1.46977
14.1092 4.85783 -1.1834
36.4289 2.69131 2.24628
 49.7783 -26.3849  3.29325
37.6138 4.57603 3.65148
 38.282 6.30443  5.0895
 37.1191 -2.13257  2.28745
 38.8108 -17.7246  4.01655
 5.20829  5.40114 0.138692
 39.8819 -19.2351  4.15761
13.1714 14.9671 1.74448
44.4977  5.0974 4.31686
44.5109 4.94116  4.3169
22.4898 9.85636   1.457
43.6491 6.24837 5.78779
23.0405 14.6663 1.56786
25.0932 8.14681 3.43624
 32.9257  6.83588 0.875551
 49.3358 -22.7378  5.11134
28.2219  25.788 3.42341
 17.0185 -11.2992  1.88191
41.8077 5.68102 4.06373
51.8274 43.0864 1.37805
 42.2198 -19.9993  4.39029
 38.0799 -8.72525  2.37885
12.2115 15.5734 2.39935
22.3907 12.4627 2.38827
32.4976 9.55079 4.41867
43.7888 5.33174 5.79344
 27.3409 -9.50335 -1.29122
43.8041 5.17822 5.79353
48.1312 44.9018 5.88116
 27.2873 -9.50335 0.725655
22.8408 12.9093   1.525
  12.5181 -0.280877   1.21013
 25.6101  -18.235 -1.51115
 16.7273 -3.16594  1.63688
 27.3164 -10.7072 0.726431
36.6611 1.10136 2.25769
23.0983 15.1031 1.57937
23.0656 14.9098 1.57386
45.7182  -4.404 6.03544
  33.4491   39.4474 -0.915804
31.5496 6.90913 3.09896
25.5178 28.5697 3.35634
 15.2901  8.43446 -1.41712
45.9646 45.9287 3.49309
25.5826 8.05863 3.49535
22.8172 8.94205 3.17878
22.6981 8.48526 3.14691
 26.2995 -2.53164  2.54856
 11.6526 -0.11871   1.5345
9.25072  6.9417 1.46016
12.3892 15.5742 2.41572
  27.5934 -0.618691   1.69933
17.2081 21.3094 -1.4525
   20.01 -2.31839  2.64724
38.6255 -8.6998 1.02708
 27.0164 -5.09207 -1.19855
14.0851 15.5597 1.84222
  30.4792 -0.577373   2.94391
 49.9335 -27.8533  5.32634
 25.8271 -1.34944  2.49694
 5.45633  5.16803 0.934381
 27.3011 -17.7086  3.00212
24.6849 20.7272 2.91045
 15.6988 -3.43289  2.10515
 14.9712 0.503913  1.97164
 9.73149  9.02547 -1.58627
37.1568 -2.9181  2.2916
12.6491 11.4216 2.12415
 23.755 20.5202 2.82681
12.7565 11.2776  2.1254
 22.607  10.865 1.47853
23.0795 9.94282 3.25099
16.9058 9.73549 2.49688
11.9538  15.579 2.37634
16.8783 -12.302 1.91007
  14.3557 -0.372802   1.89034
22.0505 9.49036 2.26626
 38.6788 -17.9925  4.01246
  22.6466   11.0567 -0.277703
  31.1471   7.60355 -0.291118
 27.2238 -9.45582  3.74838
 49.1883 -22.0243  3.19223
 49.1845 -22.2296  3.19497
 16.0996 -3.63542  1.58384
22.7931 15.0918 2.51836
 12.0472 -1.09759  1.59152
 16.5659 -11.2811  1.14165
 38.0592 -20.1968  4.02567
16.7505 -11.709 1.16034
 21.9512 -16.1974 -2.26481
22.9134 8.41199  1.4632
47.4242 43.8779 3.51908
 9.97638   13.363 -1.47686
38.0244   -11.5  3.7904
 11.4181 -4.60916  1.59704
22.7891 14.9177 2.51134
   5.178  5.50587 0.931274
 13.1433 -1.94359  1.28021
 13.1521 -2.01564   1.2818
 42.1646 -13.9692  4.22856
   49.68 -25.4497  3.27253
22.9779 9.66138 3.22695
11.2923 -4.0821 1.56171
 11.3339 -4.27775    1.574
 11.3805 -4.45555  1.58646
 15.6441 -4.47106  2.12464
38.8401 30.5003 1.03278
 27.5133 -10.3087  2.78747
 15.9483 -4.73985  2.17121
 36.6891 0.909569  2.25924
35.7004 3.58454 3.45997
 42.3937 -22.3061  4.47773
 31.7898 -2.72572  4.19424
 36.5354 0.586439  2.24954
38.9823 29.9572 1.03656
 40.8224 -7.70709  1.08548
23.8114 8.28815 3.27938
 28.0457  -16.725 0.745819
22.9644  13.895  1.5494
 10.0737 -2.89399 -1.90517
24.9434 8.09035 2.49836
24.4681 8.12607 2.45489
35.9647 4.63572 4.76203
39.3366 6.05405 5.22268
 18.9426 -4.49056  2.54774
 28.2624 -17.8738 0.751577
32.3954  9.3977 4.40118
  10.58 12.8826 2.02927
 15.6228 -7.82014   2.2494
 13.4922 -2.43213  1.31908
23.7557 20.6663 2.83354
 15.8354 -4.58578  2.15233
13.2035 14.8982 1.74322
  13.471 0.122628  1.77357
 28.2392 -16.2441 0.750961
 26.2475 -18.0412  4.03866
 23.009 14.3652 1.56049
22.9964 14.2459 1.55758
22.9544 9.50991 3.21797
43.9789 6.76173 4.28255
23.2083 10.8778  3.3068
22.2459 8.66491 2.26229
 27.5423 -11.6721  3.87132
35.8784 2.71631 3.47181
47.0546 -15.239 6.44047
  17.324 -11.3279    1.909
  16.2171 -0.307402   2.13487
 20.2935 -3.43998  2.70077
22.2628 11.2923 2.33866
31.6591 8.11156 4.27168
23.8622   13.57 3.51456
  17.613 -11.6048  1.94417
22.3523 12.1358 2.37391
 12.4811 -1.38025   1.6513
 20.3808   5.9191 -1.67398
44.2282  5.8469 2.73621
22.2985 8.50598 2.26313
22.7889 12.4629 1.51447
 37.9961 -8.14853  2.36939
10.9527 14.6131 2.84153
 37.7204 -20.5273  4.00669
46.9922 44.0918 3.50162
  27.262 -10.7072  2.77432
30.4981 7.13468 4.09822
 13.904 9.70955 1.55649
 5.30046 -1.44809 0.719506
7.04663 7.65428 1.64178
22.633 11.073 1.4832
38.9775 28.5313 4.41411
 22.8177   11.902 0.606832
 18.9299 -14.0668   2.9774
 12.0686 -4.07729  1.65909
 33.784 5.68559 4.49386
 29.3756  -12.628 -1.44827
33.9376 5.46727 4.51014
33.9849 5.35269 4.51441
23.1358 15.4764 1.58863
 41.7868 -7.44339  2.59553
22.6591 11.2827 1.48795
15.2219 -3.2729 2.04003
 25.7556 -1.21008  2.48957
  28.2934  -17.8738 -0.415943
  27.3793 -0.903201    3.6037
 38.5766 -11.2887  2.43144
22.1856 10.6736 2.31266
 27.5136 -0.81113  3.62106
5.12381  5.4942 1.18708
 13.6069 0.219373  1.79157
 25.6924 -18.2624  3.98936
 27.3799 -10.3682  2.77665
 27.2901 -10.9393  2.78287
 33.2737  6.66588 0.884802
 30.4975  7.79175 0.810998
5.49424  5.0307 1.18851
22.9834 14.0717 1.55366
5.53579 4.98023 1.18922
 20.0765 -11.9195  2.98374
 20.2055 -11.8528  2.99527
 41.9576 -17.5685  2.70622
 15.3403 -3.49578  2.06034
 15.3989 -7.57369  2.21095
 15.9143 -3.53848  2.13533
25.5662   7.857 3.48701
25.5491 7.70505 3.48023
 16.9622 -5.29045  1.07292
12.2844 10.9763 2.05488
 12.509 10.8528 2.07005
19.1813 -11.987 2.88334
39.0945 49.2955 3.23807
23.5401 11.9001 3.39367
23.5092 11.7813 3.38438
  25.0285  -18.3737 -0.418371
 11.6028 -5.35963  1.65085
 15.2856 -8.33337  2.23389
 19.5039 -12.0465  2.92397
  13.72 17.6469  3.4862
 38.9986 -11.2532    1.037
23.7097 12.8857 3.46177
23.6953  12.717 3.45169
 13.2295  14.8338 0.351935
28.1629 -15.473 4.12001
 36.7171 0.717783  2.26082
 27.4928 -11.5377  3.85974
 49.4406 -23.8186  3.23331
 16.7007 -11.5875  1.15517
  22.7516   11.9058 -0.291542
  39.2438   32.1301 -0.726833
 16.7081 -5.31795  2.28537
 47.7919 -23.3891 -0.58645
 27.7651 -11.8814   3.9073
 31.574 7.91326 4.25568
 31.468 7.71123   4.237
45.7308 46.0156 3.48326
43.8661 5.01572  1.1664
 25.4656 -3.34207 -1.11377
43.8941 4.87727 5.80173
  13.292  13.2271 -1.60516
22.2099 12.2592 -1.1784
 42.6701 -13.1492  4.25825
 12.978 16.4063 1.80771
12.9746 16.2847 1.80083
46.1078 42.6066 1.22599
40.8027 48.5257 1.08496
 18.7083 -2.36723  2.47769
 18.6599 -2.49422  2.47307
39.1494 28.6242 2.73639
 41.7428 -18.1874  4.29496
25.5221 20.2888 1.81861
 49.7443 -27.2642  3.30588
 25.9417 -18.1675  4.01165
29.0319 15.7262 5.38756
  16.165 -4.74264  2.19886
24.3453 8.18006 2.44467
 36.8752  2.52752 0.980547
  17.275 -1.42078  2.27975
  28.169 -17.7161  3.07665
 17.1916 -1.22511 -1.34271
 5.41094  5.21572 0.933153
 13.6036 -2.62717  1.81719
24.0832 9.10784 4.24136
 5.32976 -1.38575 0.721581
 8.5216 7.08273 1.77636
15.4215 10.1992 2.99525
 15.3975 -7.64017  2.21386
24.5985  8.0896 4.27583
 26.1364 -18.1677  4.03363
44.0099 6.60875 4.28388
 44.5762 -8.26997  4.35719
 45.5189 -14.9035  4.56093
 30.1132  7.91824 0.800783
 17.5918 -11.3279  1.93183
38.0168  -8.292 2.37174
24.3907 8.18729  1.5486
31.0679 16.6877 5.75587
 15.6466 0.828812  2.06184
  12.2425 -0.769779   1.61452
  12.3122 -0.882547   1.62445
 24.252 8.29068 2.43851
 20.2605 -11.7899  2.99842
 12.6025 -1.34894  1.66683
25.4364  8.0538 2.54352
8.27183 5.23029 1.58964
17.5998 11.5367 2.67602
41.3547 12.6378 7.14601
17.3544 9.16096 2.52106
22.6681 7.97972 3.12512
38.8547 8.52386 6.59599
44.0929 4.50859 5.82366
36.4509  6.9314 6.15839
  37.7181   -2.2953 -0.316245
 38.2982 -19.4729  4.02358
 26.0615 -18.2307  2.91756
 20.3086 -12.3827  2.20423
 11.5372 -5.11032  1.63212
39.7947  4.5547 2.45902
39.6564 49.0139 5.46066
 49.0541 -20.9641  5.03567
44.1044 6.14459 2.73006
 48.4276 -23.9347  1.28767
 22.568 10.4603 1.47023
 46.4169 -14.1393  6.32524
 15.1878 -3.20985  2.03427
31.2459 7.06551 1.95137
24.5686 7.79438 4.25843
 25.609 7.62527 3.48544
31.9526 8.66554 4.32402
12.5908 10.5311 2.62932
23.6209 11.9014 4.32634
11.9609 13.7284 2.86156
 37.6553 -20.6628  4.00551
 49.5863 -24.7487  3.25604
40.0943 8.35472 6.79349
27.5038 -17.684 1.87476
  39.238 -19.9297  2.58216
 27.5255  -9.3175 0.731988
38.9293 8.25455 6.60025
32.1337 6.51459 4.29555
32.0512 6.26441 4.27976
23.6736 12.5988 3.44327
 27.4953 -11.1893  2.80817
  47.7924  -24.2221 -0.599427
 41.516 5.79502 5.50289
 27.7189 -11.3934  2.83396
23.5764 12.0745  3.4063
26.5425 7.59294 2.63774
46.9529 44.3078 1.24846
18.1449 10.8323 2.69999
37.1042 4.25489 4.90617
 28.2806 -16.1056  3.02864
36.4306 2.11759 3.52222
 14.251 9.09643 2.15331
  12.1628 -0.914743    1.6051
 28.1399 -16.2874  3.02266
 25.6314 -7.48061 -1.18024
  38.1086   37.9827 -0.864678
 42.9567 -17.8284  4.39557
 16.0742 0.880485  2.68075
13.4194 17.1368  3.3963
43.6093 11.6721 7.47202
23.3152 11.3288 3.34006
23.2547 11.0989  3.3223
12.8821 10.6471 2.09598
31.8614 4.56615 5.34925
 31.923 6.64672 4.27105
8.93908 6.57028 1.78962
36.4706 1.28847  3.5234
 15.4222 -2.47615  2.05068
 45.8716 -7.51758  4.47186
43.8285 1.93579 7.30094
 49.2103 -21.8281  3.19071
14.2695 16.3277 1.89573
 27.3821  -10.076 0.728175
 27.2669 -2.72098   2.6429
17.2749 8.29301 3.13955
11.5617 11.4776 2.01627
37.3325 4.94965 6.25965
46.8932  44.308 3.50166
12.1543 11.7058 2.68139
9.38455 6.78845 1.46555
43.2875 12.2389 7.44101
12.2734 15.8556 1.72831
 48.3784 -23.0754  1.28636
 48.3784 -23.2831  1.28636
  11.7184 -0.263414   1.95311
  44.6655 -0.689106   2.74992
 13.0685   5.8658 -1.64307
37.6933 1.93002 6.28111
22.3715 12.2986 2.38103
   10.764 -0.469057   1.79533
 19.0992 -12.7414  2.91668
 24.4785  8.73529 0.650986
 26.379 14.4101 4.90355
 16.6386 -3.23972  1.62939
30.8347 6.75908 4.13294
 49.0483 -20.5568  5.02405
38.0912 5.18598 6.38933
 31.664 6.81827 3.10846
23.7041 8.42089 1.51032
13.6422 17.8026  3.4946
37.6345 4.31968 6.29884
 28.2283 -17.6159  3.07804
 14.6441 -3.58121  1.97281
23.0631 9.79236 3.24277
36.8654  6.8764 6.22491
37.7129 4.05719 4.98354
24.0558 19.0781  2.7869
22.8861 13.3069 1.53447
 7.35892 0.762031 -1.08734
12.0794 6.01197 2.20915
22.8667 13.1358  1.5304
 12.9273 -1.29199  1.70875
 14.5872 -2.60771  2.46214
 28.1192 -17.9211 0.747773
22.8148 12.6851 1.51971
30.6219 6.93768 4.10954
30.7954 6.63765 4.12515
  15.225 -2.14427  2.01982
16.2118  10.547 2.46057
32.2908 6.48138 3.16325
33.7809   30.22 4.06719
 11.9211 -1.23499   1.9953
12.9252 15.1514 3.12542
8.81148 7.49839 1.44873
16.5943 10.2257 2.48671
 10.5582 -4.88296  1.90901
41.6373 12.5648 7.18838
 10.5173 -5.05952  1.91321
23.0943 29.2615 5.81835
22.2371 11.0843 2.32985
43.4644 7.94898 7.33469
 30.2991 -4.09895  2.94538
23.1277 10.3014 3.27192
43.4797 7.79435 7.33337
42.5058 12.3405 7.31904
30.8488 7.68149 5.26648
30.9307 7.58687 5.27663
22.1599 10.4709 2.30427
18.3284 7.56511 3.26094
22.8044  11.794 0.60648
 12.1634 0.121754  2.02685
17.0801 15.5793 2.87864
7.58569 6.12901 1.56601
 38.7511 -20.9125  4.11031
44.2252 4.13132 5.83718
38.9661 8.97906 6.62802
37.5675 2.51838 6.26504
8.35716 5.16189 1.59701
 14.5789 -2.55352  2.45946
 10.8697 -4.17227  1.91897
 25.6428 -18.1239 -1.50764
 38.2611 -9.11938  2.39297
  25.836   8.5632 0.687073
 11.4393 -4.71134   1.6037
30.1094  8.1018 2.98247
 5.27604 -1.34344 0.904238
41.3298  9.9821 7.04457
14.9742  11.309 2.36694
10.5933 13.0375 2.04304
26.4417 -17.836  4.0486
  12.2348 -0.897761   1.18485
 26.3955 -17.9395  4.04943
 27.4653 -3.41588 0.730388
16.6769 -1.4318  2.7862
24.5836 7.94166 4.26707
  15.025 -3.01363  2.54442
 25.6866 -17.8753  5.05668
 25.8362 -17.8454  5.07546
 15.1378 -2.98102  2.56202
4.51416 6.09251 1.44327
32.5309 5.12864 5.47124
 12.5457 -1.52259  2.10314
49.6435 44.0903 5.96157
43.7624 11.3029 7.48374
 26.8998 -18.0281  5.24111
 13.6607 -2.96544  2.32008
13.6628 -3.0413 2.32268
 49.2618 -23.3097  3.21525
 15.1971 -8.01106  2.20745
 24.4985 -18.2216  4.91822
 10.8721 -3.89114  1.90576
15.8832 0.20016 2.09079
 16.8932 -11.3014  1.87137
13.7577 18.4829 3.58297
 30.124 7.36804 1.88578
15.7688  18.349 3.79822
 27.6387 -17.9669  5.34234
 28.1313 -16.3306  1.88553
  22.969  13.2873 0.610856
11.9633 6.59613 2.22938
  12.1647 -0.657875   1.60361
13.2483 10.5268 2.12769
11.7583 7.63252 2.27339
23.7531 13.1255 3.47897
16.1025 -3.5473 1.58277
  11.4981 0.0645329   1.91607
41.5497 48.1041 3.32609
12.6778 15.5096 3.13483
22.9611 8.33851 1.46516
41.7544 48.0011  3.3335
 10.5874 -4.76171  1.90648
 14.7557 -7.55679   2.7114
 10.525 10.4773 2.87117
   11.5839 -0.0976744    1.93037
  15.777 -2.93459  2.66556
10.8216 10.4377 2.91134
8.58337 7.83067 2.25655
  11.6154 -0.159145   1.93571
15.7248 10.4673 2.40033
 15.9976 -2.91754  2.70133
12.0322 11.4819 3.22191
 23.5367  8.84849 -1.12752
23.3912 11.6199 3.36265
11.8944 6.91628 2.24109
11.9358 6.71814 2.23356
 27.8785 -16.0883  4.11799
   12.1015 -0.0383197    2.01645
  37.0216   1.36898 -0.308899
 36.6494 0.331717  2.25647
5.71711 6.07174 1.60813
16.8283 9.84844 2.49371
  5.6768  -1.3263 0.560213
 18.6618 -5.75961  2.54671
16.7691  9.9325 2.49122
 38.9761 -11.0993   1.0364
12.0144 6.29843 2.21743
16.0422  12.231 3.94743
 18.7128 -5.84727  2.55588
  11.0335 -0.286782   1.83927
44.1823 4.28325 5.83303
  11.0599 -0.404076   1.84417
17.3765 16.5675 2.14112
 37.0253  1.50001 0.984539
 14.4534 -7.85563  2.68535
 37.0065  1.62866 0.984039
 28.1561 -16.1344  5.28497
 7.87937 0.126382 -1.15692
 8.33045  1.72347 -1.54278
11.2052 11.4952 2.54116
  16.092 -4.87937  2.78095
 17.5052 -7.75713  3.14376
 13.8145 -8.31266  2.62233
 45.6932 -4.72494  6.03552
15.3832 -2.4146 2.04459
27.3279 -10.076 2.76473
12.8184 10.4195  2.6501
  19.3711  0.107656 -0.835946
 16.845 15.6372  2.8583
16.7804 15.4685 2.83962
43.3277 7.14154 7.29298
16.3841 10.8468 3.86601
   12.072 -0.972791   2.01698
7.68191 8.40112 1.79542
43.8486 2.09073 7.30523
13.8378 16.3001 4.09627
10.8796 6.41077 2.49539
7.92545  5.6996 1.57672
42.4445 4.41938 7.09664
 15.3202 -8.49197  2.24597
13.9444 15.7431 4.03828
 16.6761 -2.20158  2.79766
27.7182 -1.9876 4.62454
 26.0848 -2.41879  2.52716
 12.7639 -2.09765  2.15045
24.0216 8.89254 4.22117
17.7014 7.96925   3.186
17.6115 7.74387 3.15938
 20.5768  18.3238 -1.37418
24.8968 29.5367 4.71065
  24.5476   8.70312 -0.256595
16.9413 7.88686 3.71453
16.9046 7.68998 3.69346
12.8253 11.1795  2.1259
11.7809 7.53039 2.26897
11.7966 7.39555 2.26121
 13.5759 -2.69604  1.81499
 10.9577 -1.72232  1.84485
23.7662 15.8304 4.62325
29.5105 11.8854 6.33989
43.5244 11.8949 7.46639
49.1628 -22.427 3.19653
 15.7011 -7.38356  2.23896
7.20902 5.42558 1.76813
7.97439 7.85023 1.77651
9.75844 12.9011  3.0799
 9.8361 12.8627  3.0849
  10.7335 -0.335509   1.78957
6.49104  8.3454 2.01694
22.4737 8.43794 2.27758
 25.4643  8.63804 0.677193
26.2901 -18.023 5.15387
33.4973 5.75819 4.45787
 27.3174 -10.9393  1.75565
8.23644 7.99475 1.82379
6.21349 7.46398  1.8599
13.0356 14.8752 3.79585
  15.9433 -0.581877   2.09968
28.0154 -16.725 1.88595
44.8248 -19.343 4.60679
 37.8783 -19.6146  5.48171
 15.7339 -7.16476  2.23337
39.8861 12.8158 8.37587
 15.6844 -7.47664  2.24109
12.1656 11.8972  3.2923
 11.7862 -5.10246  2.11091
   37.746  -2.95884 -0.318065
 19.5076 -14.0922  3.88246
 11.6153 -5.41489   1.6548
43.8835 3.94801 7.32876
14.5217 -7.7941 2.69151
17.1068 8.36054   3.118
12.2175 14.1219  2.9333
  11.367 0.303248   1.8948
17.8995 11.1589 2.68924
25.5629  34.517 5.18035
 37.9913 -19.8421  5.50621
4.92904 6.05428 1.49376
39.3127 7.90469  6.6531
36.4958 8.01421 7.49624
 14.9507 -7.36109  2.72875
 14.9174 -7.50805   2.7328
37.6802  10.879  7.8507
44.1419 8.08038 9.01073
29.4903 11.3396 6.30137
 44.135 7.91915 9.00436
25.3389 8.12848 3.46672
  12.6985 -0.128959   1.22737
   11.5431 -0.0162543    1.52004
 7.74957 0.434963 -1.40397
24.2607 9.91143 4.31008
37.9089 10.7292 7.88803
24.2222 9.74748 4.29551
43.6467 11.5183 7.47259
23.1482  15.602 1.59176
  11.5682 0.0445427   1.52334
37.4601 4.70364 7.59035
22.5855 8.08431 3.11842
24.1714 9.53069  4.2764
22.6362 8.28185 3.13178
32.7877 5.87317 4.36775
9.14383 7.08096 1.45721
 12.9309 -1.86948  2.17313
 12.2306 -1.04843  1.18528
27.9472 12.8126 5.04176
17.3017 16.6704 2.14031
29.5193 12.0698 6.35355
14.3506 -8.4984 2.71424
12.3504 6.87298 2.79745
24.3782 15.9922 4.72337
 14.2795 -8.79792  2.72536
22.4418 12.9058 2.40794
  36.631 0.459695  2.25536
16.7249 10.8209 3.92245
 37.0536  1.30662 0.985291
 27.355 -10.076 1.74708
8.51739 4.41597 1.90369
 38.8959 -17.5992  4.02061
 44.258 3.97798 5.83997
43.2001 6.49936 7.25807
 31.707 6.71769 4.24467
 11.4475 0.264945  1.50779
8.57679 4.37056  1.9109
 15.4898 -3.61899  2.63815
5.57552 4.84781 1.43926
15.8627  10.479 2.41674
17.7987   6.991 3.81378
 15.4713 -7.48283  2.81546
23.1832 10.6686 3.29454
 41.967 4.37374 8.48537
 11.2558 -1.54698  1.89045
29.4279 10.3193 6.22841
 19.9398 -11.9803  2.97104
13.5071 10.2769 2.14002
  10.61 10.4515 2.88085
 17.2852 0.218157  3.48114
6.49159  6.0109 1.71771
 24.448  28.395 4.57729
23.8802 8.39773 2.40649
35.2434 9.04648 7.29167
31.1133 9.62925   5.382
7.79283 8.18174 2.17915
 49.6453 -23.7282  5.16853
38.9419 8.40019 6.60655
 25.1811 -18.0527  4.99967
6.49157 8.43691 2.02957
41.3353 12.4857 8.63899
6.50058 5.77019 1.69108
24.4301 10.4839 4.36718
 13.4219 -8.40056  2.57145
31.3164 7.49989 4.21231
 24.379 10.3106 4.34982
24.3282 10.1386 4.33264
 32.193 9.09497 4.36669
 26.872 14.3144 4.97102
38.9682 9.26761 6.63752
29.7605 7.50725 2.93911
38.2365 9.67136 7.90446
38.3125 9.54768 7.91416
  15.7051 -0.738713   2.06905
 32.172  6.5748 3.15324
33.3265 6.08445 3.25671
34.8695 9.53984 7.24057
32.0325 5.39609 5.39521
 9.38619 -1.17303  1.57484
9.38895 -1.2069 1.57588
 16.8066 -1.14521  2.21615
 13.2538 -2.07696 0.822243
 11.6101 -4.40931  2.04713
 14.1512 -8.18066  2.66253
10.8688 -4.4366 1.93234
5.06408 5.49532  1.4396
 41.0144 -17.7173  5.77765
33.0173 4.14231 5.53228
 12.0693 -1.35735  2.02166
 14.6886 -3.54086  2.50537
22.3361 27.1118  5.4986
 12.8622 0.841624  2.59592
   15.201 -0.823416   3.06551
 13.4069 -3.08626  2.76156
 12.6752 0.918864   2.5593
12.2068 6.62589   2.751
12.2297 6.50017 2.74483
 26.4524 -4.34034  3.51725
 17.2248 -5.77734  1.72991
 16.4076 0.552633  2.73416
 14.2577 -2.49968  2.90963
 32.619 3.86392 6.60502
  12.624 -1.48711  2.11551
8.27162 8.08524 1.83704
 26.313 8.02028 1.66196
 49.2223 -21.2184   3.1829
 11.1042 -4.08813  2.36387
 37.6017 -18.9732  5.41803
  29.6154 -0.768411   2.86083
 13.5158 0.931954  2.72819
 36.719 11.5151 7.69624
 13.2055 0.677831  2.66323
44.1497 10.3455 9.09256
 39.111 13.0227 8.23779
15.6975 0.69359 2.06785
 26.5778 -18.0836  5.19953
 27.5505 -11.1893 0.732652
43.6608 47.0515 1.16094
42.0756 9.53974 7.15189
6.42942 7.83332 1.93915
 16.8814 -1.27042  2.81832
40.6171 12.5806 8.50477
38.9746 13.1294 8.21746
11.7699 11.4305 3.17565
23.9662 8.72896 4.20456
17.5838 7.84229 3.16064
 39.376 5.50673 7.99123
 10.5981 -5.60144  2.37659
37.4663  5.4928 3.64583
12.1581 11.9426 2.11086
43.8152 6.88696 2.71616
39.3663 12.9544  8.2832
17.4028 8.20475 3.15382
17.4401 8.14777 3.15617
15.0007 5.41228 3.18547
43.8402 11.0774 7.48861
12.7539 10.7435 2.67014
22.9094 9.30384 3.20424
 25.5532 -18.2984  3.97597
 25.2285 -18.3347  3.94188
 25.0955 -18.3726   3.9294
6.17026 6.87213 1.45532
 28.1547 -17.4714  5.38005
 16.4931 -3.22044   3.3756
6.83796 6.15486 1.78855
6.75317 5.95151 1.75175
 17.2643 -3.23918  2.30371
6.51217 5.98765 1.71817
44.5331 4.70701  4.3173
 4.9228 6.24486  1.5187
4.94787 5.94019 1.21257
 10.8692 -4.30413  1.92557
  10.9099 -0.437023    1.8194
10.0248 13.5743 2.62319
 13.9171 -6.20427  3.03237
27.3403 18.7462 4.20392
7.55928 4.97396 1.78247
5.00864 5.92808 1.21837
 17.8037 -9.88765  4.02959
 8.1482 7.55699 1.77059
31.1248 7.16642 4.17966
  44.6654 -0.845404      2.75
 10.9987 -4.18159  2.34947
 14.2378 -2.31616  2.90036
43.9048 10.6137 9.05524
 16.9612 -12.5764   1.1896
38.5043 6.76995 7.85186
10.8331 6.28161 2.47586
 10.2586 -4.72754   2.2472
 10.0242 -4.83477  2.21184
 38.9451  48.6119 -1.13849
 10.8928 -4.29513  2.33655
 10.7219 -4.49114  2.31717
8.08928 7.68896 1.77556
   16.191 -0.819955    3.2644
37.5104 5.24111 6.29448
33.3876  6.3433 4.45449
 27.1023 -17.7626  1.85381
15.7005 1.19206  2.6215
 15.4676 -10.3833  3.66381
 14.2853 -8.18267  2.10794
 11.8143 -3.90701  2.48949
 11.7769 -4.14864  2.49585
 11.6672 -1.08479  1.95118
  19.515 -8.77861  4.25628
39.4996  3.2715 5.20985
  11.3415 -0.295063   2.28593
 14.2405 -9.05168  2.73843
 26.2932 -16.9807  6.16187
 16.5632 -1.18916  3.34306
40.5175 4.86622 6.78462
22.7853 8.83763 3.17086
 12.9686 -4.88562   -1.581
 12.7257 -1.27304  2.12912
10.9326 12.3213 3.73278
10.7009 10.0839  3.3588
16.2386 -5.2101 3.41182
11.6227  12.468 3.87121
43.7208 4.40149 8.83708
  11.4887 -0.258487   2.31536
23.3645 29.9881 4.60512
24.4377 8.31448 3.35908
  34.2143    42.406 -0.992039
7.66776 6.81121 2.34958
 19.9708 -12.1422  2.98339
11.0399 12.5302 3.78307
13.3325  16.712 4.81972
34.7342  9.6997  7.2216
 15.6535 -3.94421  2.11156
9.87158 13.0226 3.67575
22.7384 8.68241 3.15921
    49.2 -29.1394  11.2866
23.8432 8.54243 4.17631
  18.733 -13.9527  4.57469
7.96856 8.20246 2.60307
 11.8124 -4.02174  2.49545
   11.1421 -0.0940218     2.2452
8.33465 8.13906 2.65778
23.9701 16.1916 3.67163
  20.033 -14.7772    3.144
27.8148 -17.943 5.36591
 49.1593 -22.6333  3.19931
 8.8448 6.66973 1.78478
 16.548 -3.3426 1.62216
 26.4555 -16.9543  6.18757
44.1007 2.72304 7.35194
8.00155 5.62758 1.58161
11.4237 11.4904 3.13064
 27.2563 -10.8813   3.8045
 12.7259 -1.09387  2.57188
13.6793 11.3051 4.07465
  27.165 -3.29156  3.59472
35.4768 7.40006 7.27285
13.9769 1.21075 2.82445
  12.481 -1.51615  2.53038
43.8408 4.10301  8.8561
23.9427 14.5179 3.57414
31.6978 5.51152 5.34289
15.5467 1.08789  2.0504
 22.875 8.40622 2.31379
 12.0779 -1.42418   2.4479
38.3775 4.26862   6.421
 22.978 8.35288 2.32201
24.2095 8.33158 3.33093
9.33106 7.99658 2.81865
 15.2834 -2.92608  2.58442
44.1324 7.51956 8.99193
42.1248 12.3901 7.25975
   15.11 -7.69664   2.1819
8.51989 5.68184 2.37062
8.70086 5.51269 2.38802
  12.058 -1.37889  2.44302
  25.802 -18.2046  3.99819
16.8869 6.98467 4.27453
7.29773 6.24288 1.53745
 24.722 8.26637 3.39329
 27.9693 -15.8806  4.11789
7.27335 5.84208 1.82308
 15.3593 -10.4677  3.65345
 49.4128 -23.1938   5.1317
36.3779 7.44778 6.16032
44.0373 2.56413 7.34009
36.4827 7.13647   6.169
6.19506 8.24246 2.31938
  10.7174 -0.467459   2.16148
 12.3189 -1.31985  2.06242
11.6727 12.9521 3.35152
8.22865 7.51728 2.55011
 12.3997 -1.55045  2.51489
 12.2467 -1.61887  2.48582
7.47897 5.07304 1.77821
 49.2954 -20.8424  3.18207
5.79049 6.17928 1.92528
 14.3988 -6.23778  3.12457
13.9882   11.14 3.49307
5.03216 5.46805 1.68846
3.22682 3.09769 1.02324
 10.668 12.4564 3.71038
15.4172 -7.6578 2.81794
10.7101 12.1135  3.6636
 15.4056 -4.58317  2.65893
24.1319 9.32013 4.25956
12.2782 7.46734 2.83649
 10.7798 -1.84985  1.81844
8.06062 5.52251 1.58168
14.2833 -7.6906 2.08277
 14.2702 -7.97618  2.09555
 23.655 7.91773 4.11799
 25.6098 -17.0533  6.05073
 19.1526 -12.2981  2.89742
19.1064 -12.506 2.90394
11.0908 6.43737 2.97934
12.8621 13.2092 3.55816
13.4044 10.4229 2.13803
44.1191 6.64988 10.5113
 26.7375 -18.0555  5.22007
6.45535 8.03531  1.9699
 14.4225 -7.84711  3.25137
 16.1232 -11.2377  3.85958
37.9715 9.88836 7.86198
 13.0939 -1.21821  2.64758
 10.8815 -3.70182  1.89858
 6.9242 5.80616 1.76259
36.3079 4.43369 8.62191
13.0121 15.1668 3.83077
6.91487 5.79853 1.76023
 12.8199 -1.78626  2.60413
 27.0645 -18.0014  5.26257
9.07597   3.554  2.2838
14.2673 -7.6335 3.20577
 28.2089 -16.2441  1.88844
12.5398  15.451 3.11264
 13.3395 -7.97224  3.06889
 15.2451 -3.44924  2.59303
 15.6783 -4.31126   3.2586
 15.7692 -4.45559  3.28306
29.1492 11.0913 6.22124
12.2374 12.7629 4.02075
35.3021  7.6946 8.50092
14.8936 4.50737 3.65489
13.1027 17.0996 3.35661
7.08688 6.23694 1.50898
12.2439 7.16301 3.29461
12.2173 6.97571  3.2696
 7.8428 5.83016 1.57587
12.1994 6.85243 3.25325
31.8137 8.38914 4.29876
10.5686 10.9723 2.93893
 11.3091 0.421047  1.88569
17.6958 11.4232 2.68055
12.6011 8.61182 3.52844
23.1039 10.1458 3.26244
  15.019 -7.28941  2.15199
35.0626 6.80793 8.40829
 15.1182 0.907233  1.99292
 18.7883 -12.8552  2.09231
32.4836 4.71784 6.59737
22.8375 12.0651 0.60736
43.2507 5.57942 7.24869
39.0174 29.1603 2.74025
10.8222 11.4185 2.48608
 12.6281 0.737887  2.98664
 40.4159 -7.63759  2.51313
 14.2793 -7.59192  2.07742
 44.115 7.11896 8.97706
 28.7556 -8.65154  3.91613
11.5877 7.15994 2.68735
12.3611 6.99295 2.80954
 16.5597 -12.1006  1.15778
38.2254 10.3952 9.30651
41.6868 12.2849 10.2026
10.9465 6.60633 2.52459
6.59535 5.73816 2.00494
12.1853  12.798 4.01709
 20.0294 -3.64863  2.67024
15.4288 -10.436 3.66226
   31.442   41.8804 -0.991831
13.3069 -1.0967 2.68843
 12.0215 -7.63516 -1.65962
 14.2696 -1.02555   3.3769
24.7036 8.10833 2.47642
 17.9855 -11.3914    1.223
 12.0321 -5.06399  2.60145
44.1313   7.686 10.5487
44.1991 7.45799 10.5565
 16.1901 -5.06955  3.39507
 28.5357 -1.64414  4.75723
38.7284 13.1979 8.17404
 17.0593 -3.11677  4.08572
 13.9283 -2.16752   3.3236
44.0015 8.06218 10.5322
  14.173 -1.26945  3.35827
3.20027 3.27244 1.04406
13.0769 15.6918 2.48922
35.5384 7.55012 8.54922
13.4065 1.35272 3.17984
 8.4322  4.0433 2.18346
23.1515 10.4582 3.28154
38.4449 9.43759 7.93551
24.6915  7.7381 4.27574
12.1617 6.82415 2.75951
14.9649 5.63807  3.1922
14.9828 5.52504 3.18877
  25.909 -17.0562  6.10259
17.0758  7.4804  3.7105
   16.2513 -0.0803354    3.83656
 48.6868 -28.1481  11.1086
12.7666 10.7031 2.08733
16.0333 7.56758 3.52323
35.9086 4.89808  8.5408
38.5711 9.62115 9.34512
 12.8431 -1.33161  2.59925
11.0546 6.31326 2.95898
 16.0998 0.316732  3.80145
44.2656 7.14987 10.5615
 48.4305 -22.0706  1.28774
 14.0072 -2.89194  3.36873
11.3271 9.16518 3.34882
8.48344  3.9258 2.18419
39.8805  6.0058 8.10423
 17.0129 -4.94056  4.16212
  37.0519   1.49969 -0.309316
 35.328 7.89542 8.51589
13.4242 1.16404 3.18037
41.6565 9.75237 7.09027
 13.5789 0.219528  3.20675
   11.941 -0.772515   1.99322
8.82675 4.20869 1.94432
37.6904 5.53597 6.33001
44.1219 7.27916 8.98293
36.2053 8.21724 7.44667
  10.887 -5.30273  2.82551
 16.3158 -4.98329  3.41498
14.7253 9.76077  4.0875
44.0441  10.484 9.07735
44.0931  6.7983 8.96405
 12.119 11.3633 3.22111
 12.2038 -2.76453  2.51233
 27.9595 -15.6338  5.22149
17.5855 7.93308 4.50554
 10.6451 -2.10122  2.55725
   13.617 -0.546409   3.21765
12.3011 7.74982 2.86629
9.31964 5.98952 2.18333
 16.5187 -1.01029  2.75563
12.0419 15.5807 2.38448
 8.9191 5.98547 2.48571
 24.6302 -18.1858  4.93357
 26.6202 -16.9283  6.21378
 49.4862 -29.7794  11.3941
 10.2109 -4.36651  2.59789
 15.1193 -3.59185  3.11819
 14.4918 -7.39744  3.22754
43.7604 5.65559 10.3988
13.1541 0.49042 3.10811
 13.3944 -7.63506  3.58307
 14.6555 -7.66845  2.70342
33.9642  29.959 4.06956
44.2488 7.30686 10.5629
 14.778 5.30792 3.68106
14.9501 4.89995 3.69218
 11.8555 -4.11021  2.94375
  11.2814 -0.313521   2.66554
16.3161 1.18113 2.72358
  14.222 -2.15996    2.893
 13.9426 -2.32905  3.33229
33.5092 6.12356 4.46608
43.7706 7.11558 2.71467
 17.7168 -5.27501  3.70108
38.0929 9.78668 9.24384
  11.1641 -0.349332   2.25051
36.2141 7.56081 8.70602
 14.7335 -7.59372  3.86115
 10.261 10.1214 3.28603
  27.321 -10.4997  1.75026
 12.0826 -3.96433  1.65713
 12.8884 -1.70517   3.0669
  11.5684 -0.504633   2.33281
38.4202 13.2563 9.52582
8.58051 3.91212 2.20401
8.74511 7.82062 2.68649
42.9498 10.3927 10.3896
17.6355 8.01407 3.17842
13.7271  16.343 4.08649
42.2557  4.5498 7.06726
8.20378 7.38961 2.52776
13.2946 1.12007 2.68633
 36.507 6.95505 8.74928
 49.7128 -25.6861   3.2782
7.19356 5.81993 1.80766
35.4468 5.46084 5.95862
 10.6573 -2.61239  2.20233
 16.1669 -1.27496  3.26465
7.05971 5.79431 1.78313
 49.7449 -25.9235  3.28386
10.7806 14.2797 2.78537
 25.5866 -1.11351    3.369
 14.5309 -4.13762  3.55084
42.8599 10.5307 10.3757
 38.485 13.2658 8.13114
24.5344 10.6306 4.39144
13.2417 0.32933 1.28002
 12.9262 -1.29428  2.61525
 10.8015 -4.28557  2.72153
 13.0561 -7.26145  3.47425
13.6494 1.49842 3.24004
4.77528 6.25456 2.04221
 13.3114 0.848253  3.14891
 12.247 14.0955 4.22695
 13.9344 -8.13811  3.74763
44.1537 10.1834   9.087
38.3466 6.88749 9.17411
4.66923 6.00657 1.97605
4.60502 5.96733  1.9572
 13.9676 -8.35599  3.77752
33.1744 5.34942 5.58202
 11.1203 -2.37604  2.28428
11.6891 13.0618 3.36803
 14.894 4.16673 3.63519
17.1348 7.29223 3.70858
 13.148 10.6362 2.12396
 23.9426 -17.4603  6.83254
 13.9596 -2.47503  3.34136
17.4701 7.25432 3.76894
44.1489 8.24183 9.01724
 36.313 5.08333 8.64067
31.7309 8.24844 4.28445
 11.3075 -3.89444  2.39144
  12.0962 -0.165997     2.857
  31.414 -2.47185  4.14277
36.4955 1.67315 3.52688
3.37903 2.68144 1.14344
8.51303 7.56919 3.00086
8.96569 3.63886 2.26592
 18.5352 -13.5547  4.50059
8.23994 6.82469 2.82577
   6.75 5.78264 1.73205
  13.441 0.951398  3.18084
13.8536 10.5001 4.00412
 11.1184 -4.37982  1.96844
10.1109 6.11602 3.14953
39.0835 28.8918 2.73828
10.4889  10.804 3.94365
 13.9194 -7.23664  3.65401
  11.9728 -0.816827   1.99889
37.7218  9.9744 9.16864
11.6421 12.8101 2.72794
16.7005 -1.1401 3.37004
 11.8626 0.651423  2.80538
 14.7306 -2.15772  2.99428
 11.2494 -2.30042  2.30711
11.7419 -4.9131 2.09373
 10.9735 -2.44576  2.25792
 14.5405 -8.93304  3.36676
30.9297 6.89357 4.14822
 15.2795 -3.51343  2.60061
 37.7137 -5.36547  2.33515
 14.5091 -9.05455  3.37235
8.45976  5.2625 2.65428
4.91877 5.60349 1.94659
13.4047   1.019 2.70699
8.52042 5.19695 2.66018
  28.411 -17.4359  1.92114
17.8646 6.94458 3.82331
 10.836 9.69785 3.82885
3.30624 3.16631 1.20488
  15.5127 -0.922388    3.1291
 13.9927 -8.57234  3.80597
 14.0334 -8.73331  3.83187
 14.3917 -7.92047  2.68047
 13.1796 -8.01133  3.57823
14.5074 -8.0505 2.70644
 11.4884 0.650699    2.318
 11.6682 0.722465  2.35483
17.4177 16.4909 2.14062
 32.1777  42.5497 -1.00637
 13.1797 -1.36774  3.12697
 26.7173 -18.1378  2.96911
5.29051 6.30922  2.1452
6.84413 5.40669 2.00782
 17.4257 -3.11163  2.32225
8.27113 4.52317 2.19463
 8.2017 4.20239 2.14874
4.96293 6.17039 1.78768
 16.2948 -4.79442  3.99024
 10.0797 -4.50023  2.58039
 13.6515 -7.34291   3.6076
  10.851 -5.45127  2.83145
 14.3813 -4.01323  3.50969
 13.3208 -7.12493   3.5164
   14.56 -4.34019   3.5692
 14.7155 -2.42253  3.51553
  16.255 -11.1611  3.87446
13.8475 1.34792  3.2833
22.7373 11.9232 1.50263
23.3607  11.503 3.35356
11.7732 15.7963 2.37819
8.14072 3.87875  2.4168
  13.4455 -0.847642   3.18048
11.0884 11.4958 2.52671
38.6785 7.72817 10.6427
38.7871  7.5376 10.6626
 10.3203 -3.19693  2.53845
 14.3096 -7.85912  3.79742
 16.2143 -5.13965  3.40341
 7.3136 5.45009 2.10394
 10.7088 -4.51241  2.71892
 14.4169 -8.48753  3.88437
  11.3616 -0.215509   1.89362
 13.533 1.05366 3.20406
36.4584 1.92729 3.52417
42.6941 8.92113  11.766
8.54476 3.69812 2.17822
36.7701 4.22444 7.44248
 15.5628 -1.28362  3.68517
43.6851 5.48982 10.3768
6.40992 7.75418 1.92586
36.0444  7.6504 7.39386
16.0863 7.67724 4.77239
14.1811 5.23999 4.06393
 14.172 5.18007  4.0566
14.1699 4.84291 4.02891
 9.34212 -3.63175  2.34871
8.34901  3.3584 2.41835
12.0807 14.4063 4.24896
9.19696 3.00199 2.60585
7.79511 8.17325 1.78612
15.3858 14.8976 2.65506
10.5107 12.1864  3.6421
36.3807 7.19623 8.72951
 5.12534   5.7246 0.942953
 13.1331 -1.17532  2.65477
24.9576 8.28042 1.58351
24.1448 -17.848 5.88139
10.3167 12.2798 4.17579
 10.7269 -5.05759    2.358
  10.669 -5.30763  2.36627
  17.513 -9.80694  3.97069
 22.281 28.1125 8.08267
 17.4748 -10.0285  3.98282
 10.6131 -5.56178   2.3761
 9.73789 -4.89305  2.54152
11.5017 -2.1421 2.35179
 43.0132 -18.2056  4.41089
13.4576 -7.8517 3.07919
 11.7476 0.520929  2.77696
14.1573 12.2097  4.2852
43.7216 4.24254 7.30574
 11.4026 0.264677  2.69384
  12.4743 0.0261891   2.94591
 17.1314 -12.1229   1.9239
  14.116 -9.06199  3.88516
  12.2194 -0.103246    2.8859
 11.253 -3.9566 1.55238
3.29224 3.26112 1.21802
8.57089 7.50445 2.61095
  11.4876 -0.238421   2.71378
9.45218 2.77512 2.65586
14.6072 4.53747 4.11903
 12.0207 -5.00963  2.59566
35.0329 9.32085 7.26257
 15.0483 -0.76282   3.5569
 15.8448 -11.2935  3.81795
15.8153 -1.0807  3.7414
 13.6807 0.557696  2.75778
  12.169 0.239856  3.29437
  13.5927 -0.593329   3.21233
 39.5136 -7.88986  1.05069
 23.6711 -17.4539  6.77868
43.6081 3.93407 11.8329
 50.7596 -36.1891  14.3806
43.6609 3.70667 11.8423
6.99753 5.16412 2.30629
  37.949 -19.4831  5.48388
  10.9986 -0.402577   2.59949
 27.4654 -17.9915  5.31932
19.1613 -12.115 2.88813
 49.5148 -32.7453  13.7271
 10.2563 -1.74646  2.81257
43.5172 4.54352 11.8227
12.7577 -3.8525  3.1309
 10.2116 -1.90585   2.8074
 16.5191 -4.26277  3.42069
49.5229 -33.001 13.7581
 49.8351 -34.2283  13.9636
25.5392 -17.906 5.03828
 8.8516 6.00815 2.47482
 38.237 10.6975 10.6936
36.2287 3.90486 7.32803
4.9881 5.4972 1.6855
43.7684 2.70997 11.8536
 12.3464 -4.42648  3.07555
 16.5744 -11.6724  1.14988
  11.1402 -0.368576   2.63259
 11.7795 -3.75463  2.04402
6.62737 5.27999  2.2417
 16.5677 -11.8857  1.15383
16.3769 10.0453 4.45501
9.75125 9.83659 3.63074
42.3614   10.26 11.7493
 50.8482 -36.7931  14.4712
35.9118 6.90075 7.34187
5.15224 6.20222 1.82304
34.9649 3.90005 9.50668
32.5643 4.20554 6.60138
 8.2529 7.64607  2.5726
7.85724 4.04786 2.36539
7.70511 4.16024 2.34116
 12.6086 -1.39821  2.99365
14.9192 4.68737 3.67171
 26.1754 -18.1332 0.696095
16.6866 6.97067 4.22935
  12.6421 -0.662004    2.1088
4.91047 6.27014 2.06907
4.77148 6.04966 2.00243
 8.6665 4.28282  1.9205
37.9635 9.89564 9.21986
4.35878 5.90201 1.90165
 49.5395 -32.5123  13.7054
27.2952 -18.017 5.29684
8.01747 3.93591 2.39242
 37.177 4.53556 7.53021
 13.6779 -3.84672   3.8298
 13.1718 -3.77969  3.69324
 14.2458 -8.08671  3.80714
12.1458 14.2795  4.2394
 15.8112 -4.46742  3.29177
 13.0561 -3.92117  3.67273
7.64182 4.21332 2.33206
43.4154 12.1109  7.4568
9.10795 3.06761 2.58792
 15.4004 -5.25153   4.3775
9.54987 12.5079 3.54112
 12.912 13.1099 4.82103
 28.3676 -17.4967  3.08565
 25.6675 -1.21041  6.06281
8.37582 5.81573 2.35733
 15.4576 -4.35927  2.09767
 17.5931 -3.92242  4.24267
36.4816 5.30299 8.68651
37.1662 6.81676  10.199
37.1106 6.67179  10.178
35.8218 8.40296 8.65331
35.8621  8.2798 8.65679
 13.7348 -3.04059  3.79731
49.5869 -32.048 13.6624
 15.2345 -3.56278  3.13969
  13.3381 0.0983729   3.60985
 16.1463 -1.53199  3.82684
 18.6238 -13.6539  3.72306
16.6291 10.1669 2.48755
  11.881 -3.63379  2.91883
 50.3179 -35.3447  14.1919
37.4892 3.50569 6.26304
42.6488 9.06817 11.7613
7.43589 5.01695 2.38495
 49.5562 -32.2753  13.6818
 11.1454 -4.56281  3.23405
 13.2295 0.750293  3.58551
7.48279 4.99128 2.39226
 10.9958 -3.87767  2.73509
 10.7339 -4.14268  2.69576
7.94896 5.22099  2.5302
9.22968 2.97673 2.61243
11.7731   14.91 5.57965
 10.8881 -3.87202  3.10904
8.06863  5.1986 2.55492
 16.0672 -4.69246  3.35231
14.1774 17.5908 3.53205
34.4898 4.33889 9.39158
 14.4322 -7.46304  3.22189
11.1541 -2.0814 3.06605
  13.2403 -0.858851   3.59004
22.5159 10.0561 1.46134
 13.9832 -2.63161   3.3527
 49.1657 -32.3022  15.6288
 7.6429 8.81764 3.04296
 24.4245 -17.2723  5.86989
8.10879 4.26324 2.13483
 10.3964 -1.33989  2.83554
 10.3332 -1.52636   2.8248
 13.2517 -3.45181  3.69324
 12.5815 0.558264  3.40824
 12.7403 -7.53981   3.9469
43.5794 4.08604 11.8285
  14.392 -7.92895   3.2527
37.0865 6.46566 10.1629
 36.188 7.41588 7.41393
 49.1395 -31.0641  15.4605
5.02085 6.17549  1.7977
 9.47195 -4.29383  2.78901
7.94744 3.97122 2.37904
  32.74 6.33344 3.20402
42.0986    11.3 11.7424
42.1533  11.156 11.7478
13.5391 0.43321 3.19844
42.2958  10.876 11.7681
 13.8998 -8.32431  4.31784
 12.8788 -7.53038  3.97856
 10.607 12.1942 3.10093
 10.8763 -2.67896  3.02301
 31.3816 -1.25545    4.131
  12.91 0.39075 3.49547
 13.2272 -4.40771  3.75256
  5.2407 -1.46298 0.902803
 13.4276 -6.51549  3.99574
22.4227 12.7385 2.40048
 10.7887 -4.77566  3.16468
5.29488 6.28325 1.85899
10.3475 6.56066 3.26149
8.91518 3.22605 2.55099
5.07773 6.17856 1.80729
  19.405 -4.25443  4.67591
41.8624 12.0291 11.7279
 7.1021 5.50935 2.07043
6.54844 5.38227 1.94846
32.6561 3.63603 6.60794
11.0103 9.70352 3.36179
   9.67 11.9043 4.50997
3.38706 3.23591 1.39305
3.39599  3.1766  1.3839
3.40836 3.07798 1.36847
 12.8689 -7.01743  3.91521
 12.7654 0.476402  3.45711
  13.1032 -0.341256   3.54735
5.31779  6.3505  2.4402
 12.8593 0.434581   3.4821
9.29519 5.62956 3.26822
 13.1668 -7.51338  4.04501
43.7808 4.25221 8.84654
23.8011 8.38635 4.16237
  28.3002 -0.635721   3.72399
12.6293 12.7172 4.08183
4.42332 5.88041 1.90865
4.06434 3.10724 1.35697
11.4327 -1.5142 3.11894
7.62868 5.33806 2.15225
7.27255 5.05674 2.35319
42.7195 10.8148 10.3578
10.2528 12.4235 4.19071
   14.0899 -0.0696516    3.81293
43.5037 4.69704  11.823
43.7426 3.32654 11.8569
 23.9156 -17.4603  7.84535
14.1072 17.6297 3.52824
5.69327 4.39784 2.15165
 10.7421 -2.59313  2.21819
43.7587 3.09572 11.8572
38.0664 -19.523 4.00457
12.0709 7.31264  2.7861
  10.33 10.5663 3.87115
 13.7003 -8.30955  2.60538
 14.5571 -2.08019  2.95776
13.5806 7.33137 4.65044
 13.9382 -6.12589   3.0308
7.45093 5.41108 2.12599
 10.5916 -0.38733  2.13563
5.07641 6.29733 2.10395
37.5388 8.12796 11.6743
6.75922 5.39787 1.99047
3.25811 3.50365 1.25332
8.03235 3.48377 2.65014
8.08414 3.32163 2.64743
 12.4812 -7.23949  3.84875
3.45991 2.71361 1.31639
 50.1172 -34.9417  14.1041
13.0989 12.6461 4.15413
3.56067 2.07136  1.2432
 13.9105 -1.49292  3.30118
 14.4985 -6.78421  4.28794
  10.6878 0.0601417   2.52469
 49.1077 -31.2858  15.4818
22.6983 14.1318 2.47408
 12.9498 -1.13806  3.51686
 11.5926 0.105924  2.73811
5.17282 6.42573 2.42661
 12.9506 -1.76139  3.53382
   10.21 0.165435  2.76469
